ply
format ascii 1.0
element vertex 899
property double x
property double y
property double z
end_header
-0.449803875842041 1.217372481084775 -1.993846140553966
-0.456695663784048 1.252442132137539 -2.024395376627052
-0.461717061903896 1.28281068325129 -2.046653733655882
-0.463124677888365 1.303370001034496 -2.052893274595278
-0.462594331513589 1.318506855008978 -2.05054240763015
-0.462209587097191 1.334025814323125 -2.048836950627812
-0.459546185448175 1.342858555186137 -2.037030887176947
-0.459608157943065 1.359561705881547 -2.037305592723947
-0.459751713997672 1.376513576353434 -2.037941933806816
-0.456218617970732 1.382335567329131 -2.02228077511997
-0.45426293729623 1.392739791842457 -2.013611827219703
-0.452297384433644 1.402972787835506 -2.004899118860344
-0.450356925089807 1.413143207071321 -1.996297642569443
-0.446757738360104 1.417909682751324 -1.980343523550977
-0.446774263461238 1.434022833465796 -1.980416774385143
-0.446350888097786 1.448709398845538 -1.978540077940845
-0.445144149887043 1.46079482437752 -1.973190968132389
-0.443815841237935 1.472390171468301 -1.967302972906622
-0.4412013010484 1.479576617157962 -1.955713497701526
-0.439033908834773 1.488090680172534 -1.946106095826393
-0.441015778304401 1.510661857028174 -1.954891130827933
-0.435389230579447 1.507040031635807 -1.929950326471719
-0.435523772686766 1.523162000167508 -1.93054671142042
-0.440497953545303 1.556393338729683 -1.952595768442543
-0.432124874268654 1.542343166827601 -1.915480410623434
-0.431980694774379 1.557357462796651 -1.914841306018857
-0.43653785053566 1.589479440457685 -1.935041815428705
-0.419298955793513 1.541783860164277 -1.858626947538334
-0.0 0.0 -0.0
-0.0 0.0 -0.0
-0.0 0.0 -0.0
-0.0 0.0 -0.0
-0.0 0.0 -0.0
-0.0 0.0 -0.0
-0.0 0.0 -0.0
-0.0 0.0 -0.0
-0.0 0.0 -0.0
-0.0 0.0 -0.0
-0.363264300427609 -0.7157768204157 -1.556295905548774
-0.372810424100845 -0.721633670471932 -1.597193382039118
-0.374338077773976 -0.711584755620382 -1.603738151656701
-0.378477161826786 -0.706303063117878 -1.621470804043759
-0.385847186580517 -0.706650987830423 -1.653045443595518
-0.388326297895272 -0.697699364702147 -1.663666445395065
-0.392625724298265 -0.691782759028329 -1.682086036032822
-0.402492233213011 -0.695182837191352 -1.724356106083757
-0.405981226974908 -0.687103677845299 -1.739303643454573
-0.412590260978819 -0.683954192424411 -1.767618048552494
-0.419333579595557 -0.680563400096187 -1.796507755415199
-0.424403432566712 -0.674046198307486 -1.818228005413495
-0.429174509488425 -0.666712562906923 -1.838668239891749
-0.434601162706621 -0.660043041961753 -1.861917092516051
-0.436792469648751 -0.64819521754553 -1.871305083622865
-0.442510729281968 -0.641306543634045 -1.895803235639361
-0.445900767494341 -0.630727249078335 -1.910326827920132
-0.446956269048869 -0.616691294223626 -1.914848804744384
-0.447879935713792 -0.602404675339773 -1.918805974901261
-0.451956208616339 -0.5921846382727 -1.936269531933058
-0.452082287009843 -0.576642774358059 -1.936809676635848
-0.453470370451926 -0.562658023121611 -1.94275649985776
-0.45282054247404 -0.54611901759701 -1.939972508642258
-0.455001788580569 -0.532941189176723 -1.949317397145174
-0.45598894904766 -0.518254652047684 -1.953546587272706
-0.456496071889731 -0.502970610628263 -1.955719201542251
-0.457268338996478 -0.48793425616068 -1.959027746133077
-0.45993129422384 -0.474796032862175 -1.970436371511695
-0.460468103921006 -0.45935177610158 -1.97273617012327
-0.460307314669425 -0.443198547221535 -1.972047317258847
-0.458964829502259 -0.425959773346337 -1.966295846039513
-0.460712149893983 -0.41157454556752 -1.973781711201935
-0.461192224838995 -0.395979843169562 -1.975838446946128
-0.46097352936194 -0.379776094867503 -1.974901512391583
-0.461641947883142 -0.364287576216077 -1.97776514916105
-0.46381199182921 -0.349885390430245 -1.987062045399274
-0.464708324337709 -0.33441581861762 -1.990902110639227
-0.464165000272693 -0.317897968804298 -1.988574403191028
-0.463888946849976 -0.301591635973914 -1.987391735885206
-0.465640351716438 -0.28655217063463 -1.99489509974294
-0.467265075725239 -0.271317447108103 -2.001855737822615
-0.467065691049667 -0.25497403323101 -2.001001534550078
-0.468662431493712 -0.239562585641048 -2.007842285519458
-0.471677162877224 -0.224715741522767 -2.020757989327861
-0.472441324246835 -0.208665391014115 -2.024031807342194
-0.472331418678089 -0.192206255893991 -2.023560950210249
-0.471748213826197 -0.175578601960091 -2.021062385605835
-0.473553395345232 -0.159797418511082 -2.028796139248956
-0.474566130776179 -0.143650924273917 -2.033134897565508
-0.474416444368916 -0.127122579932333 -2.032493611475832
-0.476605432993462 -0.111150043717372 -2.0418716704529
-0.479653799315445 -0.095195958921176 -2.054931472971151
-0.481252652146342 -0.078792729900006 -2.061781273822406
-0.480970787213634 -0.062035824596068 -2.060573708861646
-0.48023860770929 -0.045256069286027 -2.057436907465538
-0.482000158735226 -0.028675550456472 -2.064983739471472
-0.482906888661539 -0.011951469662122 -2.068868349299904
-0.482868844776255 0.004826174815046 -2.068705361792381
-0.48377504487526 0.021643419870377 -2.072587701736135
-0.486816444454751 0.038693345417806 -2.085617657355576
-0.486966650136482 0.055624360423116 -2.086261168119484
-0.486321527856562 0.072447332832771 -2.083497337042121
-0.485495048621679 0.089192159449319 -2.079956537002715
-0.486791049629926 0.106343228035463 -2.08550886091769
-0.487475514302063 0.123429510753006 -2.088441242562368
-0.486358324509428 0.140044577415074 -2.083654981159986
-0.489482022673545 0.157950501434153 -2.09703752014679
-0.492837049530599 0.176156168280202 -2.111411116876476
-0.494659598168871 0.193993965710073 -2.119219274683528
-0.494143730132184 0.210960089681181 -2.117009194275533
-0.494098595114513 0.228107687846427 -2.11681582695836
-0.49625580046797 0.246345409331732 -2.126057720133827
-0.497814236385565 0.264414992337344 -2.132734366957524
-0.498580969757672 0.282144846245853 -2.136019203937801
-0.500016519442119 0.300329696157515 -2.142169381903226
-0.503635417313045 0.32000156209732 -2.157673454096646
-0.505009230298305 0.338420404258503 -2.163559139867126
-0.504982443427387 0.355947467225563 -2.16344437962924
-0.504431198030888 0.373084771557671 -2.161082735634734
-0.50661517594376 0.392301814833583 -2.170439327734786
-0.507481134827257 0.410604205169968 -2.174149266374982
-0.507308259555696 0.428090152660846 -2.173408634617374
-0.50691028818147 0.445366320271522 -2.171703646762787
-0.509987039716787 0.465788415779408 -2.184885057133057
-0.50954547718322 0.483088672530188 -2.182993316154862
-0.507463488060753 0.498745999718221 -2.174073664147006
-0.505711785087349 0.514594742151202 -2.16656902314034
-0.506811526979231 0.533322364197733 -2.171280534294841
-0.507305754788234 0.551468178864616 -2.173397903699579
-0.506338648159062 0.568009016118824 -2.169254628168686
-0.507715897338289 0.587193993857744 -2.175155035271802
-0.511020006894014 0.608770111878977 -2.189310492240753
-0.510394695531548 0.625758244099897 -2.186631535040847
-0.508123638236075 0.640628014664915 -2.176901877692047
-0.505904820299328 0.655407651778876 -2.167396024058614
-0.506787192571073 0.674158496371783 -2.171176280891091
-0.506416774944707 0.691260592508745 -2.169589338726452
-0.505303898395155 0.70729769444136 -2.164821556108092
-0.505952379198206 0.725784116440969 -2.167599775760911
-0.507821479870385 0.746108976983953 -2.175607371662149
-0.506829748767413 0.762261087162354 -2.17135860002909
-0.502643338739959 0.773428560313545 -2.153423193833089
-0.501242685483836 0.788688423926615 -2.147422519048828
-0.500840119298029 0.805456093098197 -2.145697846115247
-0.500330721445121 0.822020269408996 -2.1435154852506
-0.49744779807836 0.834566990752421 -2.131164472980968
-0.49668904557295 0.85055090281977 -2.127913827607603
-0.496823939764505 0.8680434573067 -2.128491740927883
-0.493525738077435 0.879427851975628 -2.114361594433391
-0.488232735714352 0.886959162208579 -2.091685328430841
-0.4841396085737 0.896344143307119 -2.074149564519032
-0.48294225743145 0.910906601002853 -2.069019876085587
-0.479984147327716 0.922003608175344 -2.056346749006531
-0.47655443420459 0.931972773773973 -2.041653181583456
-0.473735575201171 0.942919455874493 -2.029576633681073
-0.473645867116146 0.959197163181892 -2.029192306552714
-0.468588558723877 0.965235978716771 -2.007525800004393
-0.463211948328336 0.970254556510392 -1.984491340701725
-0.458903103708737 0.977173191816352 -1.966031400566584
-0.457209513378635 0.989452116228823 -1.958775725584725
-0.453657332294124 0.997526585950223 -1.943557481262107
-0.450711270286361 1.006708049773548 -1.930935970602299
-0.447350190824013 1.014743397084136 -1.916536443317844
-0.444701784526205 1.024186538712186 -1.905190148422761
-0.436723316781962 1.0209848713476 -1.871008819103302
-0.431464630391663 1.023681681268358 -1.848479569495912
-0.428142268135936 1.030674424799733 -1.834245914360378
-0.429599467005808 1.049108287151301 -1.840488841705795
-0.429173196543314 1.062978420078308 -1.838662614975959
-0.438492708339919 1.101295942605966 -1.878589241494714
-0.451604411156206 1.149917084702051 -1.934762362232807
-0.465553089607597 1.201609592595285 -1.994521251658944
-0.468969323716017 1.226720798699833 -2.009157072324699
-0.470162009095399 1.24617582088009 -2.014266771709845
-0.470349908559046 1.26301560037011 -2.015071770069398
-0.472070234470529 1.284036654718082 -2.022441985554649
-0.470143639397187 1.295130874017841 -2.01418807229986
-0.469328749954584 1.309192321134561 -2.010696925216302
-0.466630355902758 1.317877668203509 -1.999136472924483
-0.467756573511481 1.337310025829866 -2.003961411271439
-0.466831990817498 1.350886177339963 -2.000000316665407
-0.463457262758491 1.357222892958963 -1.985542316101106
-0.460352151642623 1.364124040694029 -1.972239407694716
-0.459446982744147 1.377404765639506 -1.968361485617402
-0.456942213226236 1.385771473870491 -1.957630559015257
-0.454079574944949 1.39286638709967 -1.945366452052393
-0.455020953780091 1.411563180718916 -1.949399504639662
-0.45591088457946 1.430163999232888 -1.953212143695165
-0.454060671395504 1.440135793169459 -1.945285465518439
-0.452404668335476 1.450601740439283 -1.938190821814488
-0.448450186694449 1.453502858398964 -1.921249042566559
-0.446669581770838 1.463250619506472 -1.913620579905203
-0.448152282310495 1.483678334558754 -1.919972761433384
-0.442986517281104 1.481967299159725 -1.897841605261952
-0.442648051406459 1.496214274631329 -1.896391550703169
-0.44832636679497 1.530984365525769 -1.92071857369759
-0.438814358766381 1.513748004980135 -1.879967255357158
-0.437541829733327 1.524560118023142 -1.874515490013019
-0.441407031000643 1.553364092972411 -1.891074774532209
-0.424986037279025 1.510342287374124 -1.820723998901591
-0.0 0.0 -0.0
-0.0 0.0 -0.0
-0.0 0.0 -0.0
-0.0 0.0 -0.0
-0.0 0.0 -0.0
-0.0 0.0 -0.0
-0.0 0.0 -0.0
-0.0 0.0 -0.0
-0.0 0.0 -0.0
-0.0 0.0 -0.0
-0.375192189680013 -0.715315147167592 -1.555292100779971
-0.38573651787683 -0.722450705271627 -1.599001726949238
-0.386827038954424 -0.711488975638596 -1.603522286983181
-0.389315388225774 -0.702977951307276 -1.613837293724163
-0.399720315335064 -0.708328271258837 -1.656969057623809
-0.402420933277086 -0.69958551883248 -1.66816398616439
-0.4082534474371 -0.696000523794762 -1.692341630183294
-0.416947451782511 -0.696805521577253 -1.728381069847794
-0.421395805725751 -0.6900733444885 -1.746820925313059
-0.428383112079716 -0.687114490231435 -1.775785553780724
-0.43512538600452 -0.683301055885062 -1.803734444149381
-0.438479670590096 -0.673827856007091 -1.817639030820447
-0.44304191252325 -0.665944834383571 -1.836550988573441
-0.447607831674492 -0.657760473580798 -1.855478189576169
-0.450619247341661 -0.647037035765592 -1.86796147448492
-0.454485393378887 -0.637309684919429 -1.883987891232261
-0.458618811935456 -0.627688195579199 -1.901122238393729
-0.459045019699725 -0.612839552257659 -1.902889006432329
-0.460422110232778 -0.599199744883188 -1.908597488876864
-0.462329798820213 -0.586140038954711 -1.916505470632341
-0.4630944247724 -0.571541325684202 -1.919675090726249
-0.464338398828154 -0.55746668945983 -1.924831762628562
-0.465114313274969 -0.542762215288227 -1.928048177157448
-0.466190816488573 -0.528346237526291 -1.932510628644009
-0.467710248021195 -0.514344973020869 -1.938809160237583
-0.468445395618306 -0.499405431299213 -1.941856583084176
-0.469528316638428 -0.484775528676487 -1.946345638439518
-0.470902625724192 -0.470363870426547 -1.952042590891916
-0.471833441889392 -0.455431733972373 -1.955901122782594
-0.471784124097648 -0.439523900810726 -1.955696684699826
-0.471527670916687 -0.423433375286221 -1.954633603917393
-0.472150650151533 -0.408120261208155 -1.957216052885031
-0.473109536825594 -0.393044322243107 -1.961190946048406
-0.473469609385016 -0.377426567412193 -1.96268356242684
-0.474800999561684 -0.362526236125126 -1.968202602219735
-0.475955090158998 -0.347406974964769 -1.972986678325153
-0.476979797507624 -0.332120029107521 -1.977234419319677
-0.476341807129292 -0.315662349842628 -1.974589744342195
-0.477090420601844 -0.300119826808387 -1.977692987566395
-0.477726864746822 -0.284460179971426 -1.980331252910127
-0.479755928657651 -0.26954015405353 -1.988742374354798
-0.480012956545112 -0.253547696449459 -1.989807837480215
-0.481914123964617 -0.238351136714027 -1.997688786900665
-0.483673972037244 -0.222961607084684 -2.004983922250536
-0.484785198960033 -0.207176560796073 -2.009590314661478
-0.484778059726257 -0.190876455680668 -2.009560720245065
-0.485188475381803 -0.174727201409667 -2.011262024922145
-0.485492865327247 -0.158515734895407 -2.012523818985901
-0.486848738122211 -0.142591768566479 -2.018144347093027
-0.487109421744867 -0.126292690658831 -2.019224964414685
-0.489895101540221 -0.110545856336041 -2.030772501650764
-0.49138748010478 -0.094363368008896 -2.036958890004987
-0.492956983615759 -0.078092757339698 -2.043464986027013
-0.492611653616275 -0.061477650802811 -2.042033482293373
-0.493393028214687 -0.044988497596953 -2.04527253090389
-0.494347747414846 -0.028456787043128 -2.049230148549759
-0.495755355744491 -0.011871731058951 -2.055065137060464
-0.496241950578844 0.004799058690973 -2.057082228894907
-0.497266164422873 0.021525837346055 -2.061327924154413
-0.498802016964228 0.038360827179807 -2.067694526101988
-0.499335885069298 0.055188337432376 -2.06990758082304
-0.498998460471669 0.071926153338144 -2.068508847518522
-0.499075005599187 0.088714869137056 -2.068826151650795
-0.498734114288137 0.105420495350446 -2.067413047705978
-0.499434385307716 0.122358279913345 -2.070315895939803
-0.49937756871499 0.13913221414387 -2.07008037291909
-0.503118335709356 0.157088043339452 -2.085587053274451
-0.505111752979311 0.174691068862728 -2.093850407946531
-0.506884665247326 0.192344448328714 -2.10119969858121
-0.506660432032731 0.2092920459229 -2.10027017990522
-0.508410120171099 0.227106315957704 -2.107523199065224
-0.50977903563988 0.244855335038916 -2.113197793243334
-0.511326399933349 0.262788104255007 -2.119612115099857
-0.512536900796651 0.280640460536226 -2.124630029871181
-0.513675693015839 0.298532530120549 -2.129350689286941
-0.516106053815088 0.317295205885671 -2.139425315190913
-0.517650891657113 0.335647110264478 -2.145829164094954
-0.518249244070794 0.353457358157986 -2.148309526981169
-0.518960340858991 0.37138852067258 -2.151257251502077
-0.519684129594507 0.389377003392098 -2.154257588220019
-0.520139048341182 0.407203658640191 -2.156143372499812
-0.520376602292259 0.424883423747489 -2.15712810990582
-0.520149253871752 0.442183942791324 -2.156185677701031
-0.521641382564016 0.460988724885643 -2.162371030254358
-0.521287411192018 0.478200320043518 -2.160903705256892
-0.519753268893093 0.494265817714777 -2.154544192813349
-0.519902221607768 0.511885308775205 -2.155161649644532
-0.519872198716292 0.529332582170536 -2.155037195118986
-0.520161866636232 0.547114092588004 -2.156237961659772
-0.519626225790724 0.564019261795856 -2.154017558360373
-0.520758876501307 0.58275531911123 -2.158712759250921
-0.522622287415642 0.602409854043436 -2.166437195833795
-0.522134635943717 0.619400644865802 -2.164415723897329
-0.520678744654372 0.635177489863094 -2.158380587014965
-0.519790142875438 0.651567556827086 -2.154697047310438
-0.519618490865513 0.668820691822436 -2.153985494611682
-0.519251642638349 0.685804479291629 -2.152464790914783
-0.519071915924107 0.703017034019781 -2.151719765973837
-0.519388374727221 0.720906205658442 -2.153031589327958
-0.519414855090173 0.738404418711677 -2.153141358935264
-0.517933404631038 0.753710032398497 -2.147000271087047
-0.514774082188859 0.766417952105495 -2.13390386510288
-0.515016649749094 0.784092698834411 -2.134909385528722
-0.514814385727924 0.80109156179153 -2.134070936213808
-0.514954072813346 0.818620423806489 -2.134649984036533
-0.513561298444239 0.833671012261344 -2.128876487055459
-0.512439144977823 0.849076357563111 -2.124224800612657
-0.511778603541677 0.865186632347514 -2.12148664425937
-0.509666936305821 0.878750513472607 -2.112733105508459
-0.507296644348925 0.891717810071669 -2.102907484244205
-0.506540150297071 0.907416699535591 -2.099771573488334
-0.50630853606691 0.924022641624194 -2.098811458132774
-0.505402795143576 0.939360054662827 -2.095056871171316
-0.503461210367907 0.952676490431449 -2.087008378831514
-0.501337749894523 0.965512114292277 -2.07820595332423
-0.499784140339686 0.979321583718679 -2.07176574285398
-0.494342726003006 0.985277786371827 -2.049209333185304
-0.488536272184704 0.990128300547813 -2.025139717650792
-0.485810339056139 1.000935342644206 -2.013839849533264
-0.483373593216384 1.012164652741237 -2.003738755586155
-0.480310437995643 1.021897393823002 -1.991040993614232
-0.477484079889069 1.031935947924747 -1.979324831716303
-0.47382083901181 1.039947671154799 -1.964139522010056
-0.471179354113154 1.049990007205808 -1.953189718921902
-0.46309779799972 1.0475490452353 -1.919689073836635
-0.458277418782079 1.052051287557003 -1.899707054151325
-0.458775705428969 1.06861810509676 -1.901772612302983
-0.46182819788407 1.091253757394945 -1.914426173687505
-0.46293407591552 1.109429549114009 -1.919010393226316
-0.470698869608256 1.143861758122374 -1.951197956365084
-0.480756911112104 1.184466028888537 -1.992891768044891
-0.488884148535563 1.220924620978843 -2.026581776828519
-0.486843118330887 1.232193889650508 -2.018121051253465
-0.484833357909509 1.243406124070341 -2.009789948970942
-0.484201601577671 1.258063593527455 -2.007171116117935
-0.484860827353168 1.276076245459218 -2.009903818635372
-0.482620971277773 1.286405840132167 -2.000618895983016
-0.481816009377946 1.300457725358554 -1.99728207043423
-0.478818003201134 1.308462572287922 -1.984854372168811
-0.478275535955739 1.323058631027969 -1.982605671249919
-0.477675271146068 1.33745638789968 -1.980117380868252
-0.47476253807751 1.345261301634242 -1.968043167017818
-0.472159545407515 1.353758453687787 -1.957252926577355
-0.470033340627882 1.363463650349788 -1.948439125039469
-0.467251706056485 1.371102599341487 -1.936908356555617
-0.465503339916454 1.381621281876157 -1.929660817503216
-0.466704451484121 1.400875663576212 -1.934639810629222
-0.466626521596844 1.416328590365657 -1.934316766223101
-0.464611113485563 1.425830411636185 -1.925962252452449
-0.463198318382401 1.437066325168577 -1.920105763100036
-0.459173965245783 1.440017132669345 -1.903423527125273
-0.456349969432753 1.446502160350859 -1.891717157692614
-0.458352147102329 1.468257184785776 -1.900016827034094
-0.452715946852072 1.465421730434146 -1.876652967207706
-0.45270719157763 1.480612299862544 -1.876616673783819
-0.458190638313425 1.513949567285661 -1.899347321243468
-0.448205446114738 1.496024153265953 -1.857955493325534
-0.449364255304158 1.514998565477468 -1.862759129510371
-0.454744413021458 1.54842476814076 -1.885061610822159
-0.437899269022038 1.505787414098966 -1.815233079953374
-0.0 0.0 -0.0
-0.0 0.0 -0.0
-0.0 0.0 -0.0
-0.0 0.0 -0.0
-0.0 0.0 -0.0
-0.0 0.0 -0.0
-0.0 0.0 -0.0
-0.0 0.0 -0.0
-0.0 0.0 -0.0
-0.0 0.0 -0.0
-0.389256305476287 -0.718827367570373 -1.562928635068771
-0.399387324403254 -0.724531139491735 -1.603606356561311
-0.399970502051218 -0.712565234543658 -1.605947911553516
-0.40587897311235 -0.709875195349217 -1.6296714029421
-0.415780639257119 -0.713654374066972 -1.669428234969814
-0.418784489863005 -0.705173771612085 -1.681489193421506
-0.423837554038273 -0.699881405096041 -1.701778084271209
-0.434485103627544 -0.703315948063276 -1.744529762053342
-0.437820199797163 -0.69445826840422 -1.757920726389365
-0.44492894553065 -0.691246174422416 -1.786463519685151
-0.449933157659276 -0.684370032949264 -1.806556261464163
-0.454795142759217 -0.676956293900198 -1.826077938130845
-0.457818246756022 -0.666548651201184 -1.838216202140765
-0.462417847967802 -0.658188058150101 -1.85668436397309
-0.464212467752784 -0.645626751916668 -1.863890060095538
-0.468085403544571 -0.635771420705088 -1.879440539729671
-0.471106804331034 -0.624535008629755 -1.891571965067544
-0.470483183904644 -0.60838840262707 -1.889068025611443
-0.470347223740874 -0.592897130433994 -1.888522123001273
-0.473656229773016 -0.581645096432723 -1.901808331107577
-0.474651519757706 -0.5674116857321 -1.905804585491603
-0.476548821607816 -0.554162376551581 -1.913422567138113
-0.476753859056256 -0.538876734362332 -1.914245826504552
-0.478220773184821 -0.524962954137874 -1.920135730057728
-0.479673214214045 -0.510938226057715 -1.925967521716299
-0.480300873337974 -0.495967224656776 -1.928487677212946
-0.479976418090111 -0.480003180087216 -1.927184935573183
-0.48241156575086 -0.46673016386445 -1.936962457365537
-0.482791314880341 -0.451376903703014 -1.938487213111967
-0.483424471607904 -0.436227580067037 -1.941029442399129
-0.482583122789744 -0.419754486507946 -1.937651287333988
-0.484007582518218 -0.405233223255844 -1.943370729428596
-0.48516583587397 -0.390404981507284 -1.948021308779276
-0.485399482074404 -0.374787400488784 -1.948959437030496
-0.48564776972521 -0.359165431705335 -1.949956353133641
-0.487880123495948 -0.344930023190891 -1.958919623818802
-0.488821467738839 -0.329678532130973 -1.962699277101159
-0.488936765181244 -0.313835519418259 -1.96316221545758
-0.489274480910481 -0.298120520066336 -1.964518200129666
-0.490485574260108 -0.282887247290023 -1.969380940820679
-0.492664550208737 -0.268101812658894 -1.978129890695932
-0.492898562420236 -0.252179381587292 -1.979069488542292
-0.493249282307984 -0.236297621053259 -1.980477687067885
-0.495694716248759 -0.221328312669086 -1.990296509980799
-0.496288063650705 -0.205433096433947 -1.992678898222167
-0.496929300523759 -0.189517502959716 -1.995253570633785
-0.49699567615697 -0.173359629218734 -1.995520079811302
-0.49815392472683 -0.157542741067777 -2.000170639945832
-0.499629279148297 -0.141740383178508 -2.006094432675058
-0.499852124115282 -0.12552740267718 -2.006989192182306
-0.501361914408568 -0.109581193447538 -2.013051250649
-0.504002619805535 -0.093747016429956 -2.023654120849523
-0.505071244712308 -0.077499641229343 -2.027944827110272
-0.50563574888285 -0.061121734239087 -2.030211404993131
-0.505912381349864 -0.044681639925185 -2.031322130235095
-0.507810117591787 -0.028313917903082 -2.038941856036788
-0.509275678943889 -0.011812583353257 -2.044826327968069
-0.509938485293627 0.004776674966787 -2.047487605406449
-0.50927649119506 0.021353550118689 -2.044829589291257
-0.511527350977011 0.038104295562046 -2.053867164681155
-0.51135091071848 0.054741775778059 -2.053158727775811
-0.511703819507952 0.071441670702421 -2.054575715104915
-0.511063696049762 0.087993570861537 -2.052005513238666
-0.511718046129956 0.104768813236086 -2.054632837352127
-0.512425446509219 0.121599258452369 -2.057473167216162
-0.512538550939552 0.138315393729993 -2.057927300265347
-0.514696967334642 0.155657449167722 -2.06659370012279
-0.517874232942363 0.173481371146792 -2.07935094857237
-0.519060396619274 0.190780381071327 -2.084113592492175
-0.519902105854714 0.20801881860125 -2.087493194692482
-0.520985699401698 0.225416728595326 -2.091844002526627
-0.52337309101366 0.243491779839308 -2.101429775861481
-0.525068345202456 0.261377763365906 -2.108236502632801
-0.526659206539537 0.27931878297207 -2.114624074788131
-0.526014539477273 0.296104978564959 -2.112035629597845
-0.528834711083877 0.314912445741612 -2.12335908639934
-0.529332120936344 0.332444773360857 -2.125356269465736
-0.53077438210103 0.350633670428381 -2.131147187279586
-0.531002045225095 0.368074570740919 -2.132061292486732
-0.532671249982881 0.386576470018243 -2.138763426471548
-0.533076147566838 0.404228358344522 -2.140389157434242
-0.533178649333306 0.421667463738144 -2.140800719029276
-0.531421405878143 0.437581896961718 -2.133745095070912
-0.53393883238635 0.457040923044062 -2.143852980083961
-0.532889107161994 0.473494330177504 -2.139638159183134
-0.532529081947128 0.490514660371706 -2.138192598225625
-0.531657165500897 0.50702337099121 -2.134691709063319
-0.5323347197906 0.525003430368337 -2.137412201926996
-0.532181521557699 0.542181252406038 -2.136797085609871
-0.532049230124382 0.559371077960711 -2.136265913561027
-0.531391060534518 0.575982281393422 -2.133623253482671
-0.534470917439741 0.59672403963275 -2.145989389833879
-0.533767958692568 0.613319770991716 -2.143166893859447
-0.534241362212889 0.631259712741318 -2.145067687520185
-0.53297075226473 0.647112969128339 -2.139965977813645
-0.534362275497176 0.666202424316524 -2.145553174413306
-0.534057162034265 0.683212017045674 -2.144328093248478
-0.533770069004458 0.700225379622909 -2.143175367111736
-0.531395324603081 0.714413385382185 -2.133640374425261
-0.532690804219918 0.733500535322837 -2.138841939976844
-0.53142616293328 0.749063473596506 -2.133764195436375
-0.530503374922733 0.765037038695376 -2.130059048504926
-0.529485868711647 0.780810831094822 -2.125973592286765
-0.530176013938818 0.799092166645895 -2.128744639852921
-0.530420203419859 0.816731772380419 -2.129725101124665
-0.529572477614553 0.832670413645408 -2.126321341398336
-0.526840698060666 0.845530117255547 -2.115352793350695
-0.527311785857835 0.863456511127566 -2.117244288998853
-0.526769010487512 0.879720401567993 -2.115064955853175
-0.527110978630444 0.897455302116489 -2.11643801467162
-0.526493641945505 0.91354793071336 -2.113959305479771
-0.527202371202345 0.931944464822924 -2.116804971007709
-0.527677267992004 0.949966190628705 -2.118711760392538
-0.526173885232701 0.964392972142145 -2.112675429237653
-0.522709258340538 0.975063336885477 -2.098764377564473
-0.521738635487942 0.990241603122918 -2.094867165807508
-0.517969837949178 0.999954706950227 -2.079734818533379
-0.514214051849352 1.00944791399565 -2.064654714344886
-0.511609696321703 1.020994382533949 -2.054197794899272
-0.509537169959555 1.033449907691597 -2.045876257771258
-0.507718333676823 1.046293259698654 -2.038573328393384
-0.505159290367588 1.05746865891055 -2.028298345020948
-0.50067243497786 1.064379068906376 -2.010282876366081
-0.499339373003174 1.077804617100579 -2.004930411413694
-0.491728305694814 1.077388095934398 -1.974370713671312
-0.488171911802651 1.085491822843029 -1.960091202271117
-0.488121337273088 1.101273587478016 -1.959888137145781
-0.492267083265844 1.126656215996452 -1.976533994989683
-0.492499923710086 1.143225917139576 -1.977468887996138
-0.497359316771706 1.17070091535179 -1.996980157199003
-0.500742557794374 1.19496969465287 -2.010564431106133
-0.505306920517203 1.222315887355357 -2.028891104560068
-0.501025985616619 1.22827491137951 -2.011702440826539
-0.499957941403467 1.241936225559369 -2.007414066147003
-0.49773702604415 1.2526266187638 -1.998496722581061
-0.497979679279522 1.269452519468065 -1.999471015571617
-0.495366067334715 1.278920010140321 -1.98897693007569
-0.494631145476674 1.293128806752735 -1.986026096909187
-0.489228942861506 1.294935956259905 -1.964335357309325
-0.489032989462124 1.310341195516689 -1.963548571906689
-0.487878146753405 1.323133150715674 -1.958911686869596
-0.486264173460533 1.334589778334055 -1.952431316378027
-0.482890171468744 1.341053451938399 -1.938884138712416
-0.48174583822297 1.353562100905041 -1.934289450912324
-0.478655501676477 1.360465171645391 -1.921881237063086
-0.476423203887472 1.36963369904868 -1.91291819115387
-0.475310286718327 1.381911323704514 -1.90844964411264
-0.475651717440762 1.398392180497158 -1.909820545098644
-0.473363256606379 1.407077888831852 -1.900631995246085
-0.473290262742512 1.42227220522835 -1.900338912774675
-0.467555085310599 1.420262115847306 -1.877311224052794
-0.465585219171226 1.429438779394725 -1.869401884748165
-0.468490360127944 1.453613134117637 -1.881066507584806
-0.462360098534206 1.449647787051881 -1.856452490417913
-0.463192500155464 1.467340122042534 -1.859794721003361
-0.469442864422743 1.502426563583242 -1.884890970326767
-0.458623797102668 1.482734443891895 -1.841450620404648
-0.460700306997332 1.50444915418008 -1.849788152076491
-0.46606606390095 1.537147466510678 -1.871332556098981
-0.449917403875843 1.498537275602305 -1.806493007410493
-0.0 0.0 -0.0
-0.0 0.0 -0.0
-0.0 0.0 -0.0
-0.0 0.0 -0.0
-0.0 0.0 -0.0
-0.0 0.0 -0.0
-0.0 0.0 -0.0
-0.0 0.0 -0.0
-0.0 0.0 -0.0
-0.0 0.0 -0.0
-0.397842642838111 -0.712318050115795 -1.54877558650177
-0.407799788722329 -0.717271287001775 -1.587538109158219
-0.408597704331936 -0.705774982535474 -1.590644342837524
-0.414351669441869 -0.702632465022944 -1.613044155548081
-0.424877452754929 -0.707067743655519 -1.654020346807472
-0.426559609957754 -0.69640032277456 -1.660568875617273
-0.433275571443393 -0.693685945135928 -1.686713677779863
-0.443989393075562 -0.696821978431313 -1.728421890010874
-0.449203247881749 -0.690823204824273 -1.74871908836493
-0.455511448840058 -0.686143650260735 -1.77327650526041
-0.46008378784999 -0.678505834107388 -1.791076324257376
-0.463732622310682 -0.669246536349277 -1.805280999984423
-0.466598673035583 -0.658651866084002 -1.816438349434787
-0.469191130291983 -0.64749866130182 -1.826530617269926
-0.471144114463268 -0.635319460278908 -1.834133457889861
-0.473833563745985 -0.623986788544904 -1.844603309388162
-0.477073958267309 -0.613192441491423 -1.857217954941133
-0.475367497492422 -0.595991377604176 -1.850574813902721
-0.475515181886986 -0.581164157561969 -1.851149739665273
-0.477129920464699 -0.568074297709337 -1.857435812143335
-0.478976546910101 -0.555151247261685 -1.864624609039575
-0.480477383051402 -0.541721731306283 -1.87046726672555
-0.481926843513692 -0.528141147911454 -1.876109922227684
-0.482945830237412 -0.514010879789933 -1.880076771405561
-0.485361720643262 -0.501258928197797 -1.88948167595162
-0.48515109752363 -0.485724814062919 -1.888661733817436
-0.484737063803039 -0.470006769679159 -1.887049927416126
-0.485742169723811 -0.455646079213302 -1.890962739529063
-0.486677427836016 -0.441158609856638 -1.89460363865674
-0.487108461312496 -0.426170940994368 -1.896281624004351
-0.487426035655114 -0.411060372671272 -1.897517920307928
-0.488789275769388 -0.396778579718383 -1.902824925591385
-0.490932271436486 -0.383019064979362 -1.911167468631779
-0.490476686461817 -0.36717889808417 -1.909393905895237
-0.490977233321764 -0.352053087692935 -1.911342502332904
-0.491940194992179 -0.337212645741167 -1.915091249614584
-0.494073933217184 -0.32307697651492 -1.923397754033766
-0.494272439115911 -0.307602220176497 -1.92417052461344
-0.495602201190013 -0.292783233684736 -1.929347202059411
-0.49602905898101 -0.277375387294635 -1.931008931734459
-0.498732664657199 -0.263141848541637 -1.941533893153725
-0.498350204073496 -0.247206755959234 -1.940044998925059
-0.49871986768463 -0.231645158801032 -1.941484075370101
-0.499763446575137 -0.216351964330098 -1.945546660257122
-0.501215694777955 -0.201156891200137 -1.951200168252194
-0.502124960233246 -0.185669343676475 -1.95473987965356
-0.503156721612018 -0.170165811421686 -1.958756459734412
-0.503644638507501 -0.154430375490194 -1.960655888540171
-0.505766361162111 -0.139113518023736 -1.968915617123677
-0.505201330464541 -0.123008509911804 -1.966715989291485
-0.506977737293828 -0.107435360621241 -1.973631425779808
-0.508066251176185 -0.09162598987323 -1.977868939673584
-0.510219216254237 -0.075906249045871 -1.986250292983754
-0.510713076849816 -0.05985611788278 -1.988172860228209
-0.512007686864135 -0.043843372017044 -1.993212692986998
-0.513098031525118 -0.027737839998655 -1.997457333983138
-0.515294603838823 -0.011588339639663 -2.006008447431367
-0.515388077025005 0.004680755316563 -2.006372332478274
-0.51478221932946 0.020927322576518 -2.004013767792849
-0.515494510960625 0.037230836457392 -2.006786672881523
-0.516217755592761 0.053580462384058 -2.009602217292072
-0.516666493949091 0.069938596525244 -2.011349126587799
-0.516982209455673 0.086302858413981 -2.012578186563337
-0.517161612620114 0.102659996163993 -2.013276591438304
-0.518307015194224 0.119250716311335 -2.017735569316697
-0.517605140781866 0.135430422347359 -2.015003217784708
-0.519877587844876 0.152437938248909 -2.023849706707312
-0.521268166740282 0.169302518270128 -2.029263140091291
-0.523552688820208 0.186573467565108 -2.038156636271019
-0.524279128207762 0.203384236187122 -2.040984617657052
-0.526509638993105 0.220871834231118 -2.049667851372586
-0.528071849154783 0.238198817953037 -2.055749434136392
-0.530644511372713 0.256112130150249 -2.065764641171567
-0.532165350823893 0.273647021902861 -2.071685170444581
-0.531922165869334 0.290315163651278 -2.070738467200461
-0.533388914175503 0.307955190236544 -2.076448423156743
-0.53452955919341 0.325489256600578 -2.08088888017763
-0.535875957022505 0.343227129171343 -2.086130319538043
-0.537147941443184 0.361000004488112 -2.091082072329308
-0.53801269548007 0.378566651721112 -2.094448503667846
-0.539135572271888 0.396377675191279 -2.098819790137823
-0.53864647015593 0.413023564966271 -2.096915747345681
-0.537282276444905 0.428939941671837 -2.091605029771962
-0.537845600996884 0.446369870811456 -2.093798015690108
-0.537462723005721 0.463020222526292 -2.092307496521296
-0.536760705762052 0.479361387123782 -2.089574588956281
-0.53676753098397 0.496313645299176 -2.089601159102213
-0.536200504499096 0.51271761454634 -2.087393761799582
-0.537000207384809 0.530435803052214 -2.090506953228766
-0.536630171864235 0.547012117210367 -2.089066428964411
-0.536157396867466 0.56345709606263 -2.087225946587556
-0.536843894177555 0.581127121641321 -2.08989843605847
-0.536730912168275 0.597949826696696 -2.089458604429468
-0.537630464161093 0.615925386843363 -2.092960501951881
-0.53808378684408 0.633432444764899 -2.094725257733738
-0.538631155244655 0.651081805927383 -2.096856127390104
-0.539538800261239 0.669212594962671 -2.100389530528761
-0.538594331484433 0.685044967052917 -2.096712774881615
-0.536502232528124 0.699321786976687 -2.088568369432862
-0.53577614071525 0.715290202174751 -2.085741741132497
-0.535531867885423 0.731871236687151 -2.084790802860566
-0.534498713174938 0.7473338361351 -2.080768798629788
-0.534191620615949 0.763769299972328 -2.079573307229556
-0.533248477657724 0.779255889342493 -2.075901712908094
-0.534457126324304 0.797895354289799 -2.080606903719473
-0.533669318275026 0.813567579165765 -2.077540018116492
-0.531615919729111 0.827220739046944 -2.069546270853547
-0.530496711738399 0.842227384144787 -2.065189266788151
-0.530651022931702 0.859225431704584 -2.065789990248079
-0.531010070691256 0.876571194033353 -2.067187739871947
-0.531113404519077 0.893509431287424 -2.067590011756747
-0.530774865882183 0.909696866462343 -2.066272102816246
-0.532215801134421 0.928968951557426 -2.071881570228981
-0.53016874570962 0.942133703224874 -2.063912516324824
-0.526557476590352 0.952340139165824 -2.049854080033755
-0.524272239110884 0.964758699561955 -2.040957798850044
-0.523036334089468 0.978997062216507 -2.036146500818366
-0.520930801156929 0.99150220074376 -2.027949797772087
-0.520390511290667 1.00690297963256 -2.025846484390364
-0.518416708069203 1.019450683392253 -2.01816259655935
-0.517901069253605 1.034787229495598 -2.016155248117884
-0.515044608760842 1.045340259692107 -2.005035232818772
-0.510695672159884 1.052636663884154 -1.98810510489996
-0.508607081969021 1.064388815471014 -1.979974358847352
-0.503616740271436 1.069844831608953 -1.960547282517913
-0.501340085551615 1.080836171871389 -1.951684413460442
-0.503202661705777 1.100738183100317 -1.958935301537663
-0.505507965303434 1.121740228254235 -1.96790969881709
-0.505543647170609 1.137779808440412 -1.968048606010063
-0.505016461303459 1.152537077697703 -1.965996305646367
-0.505396099662718 1.169359222384124 -1.967474213138447
-0.505017768080321 1.184427656878557 -1.966001392843874
-0.503814234305513 1.197510788468821 -1.961316113974179
-0.503365543119827 1.212335935511007 -1.959569388310708
-0.503123510464614 1.227637004741335 -1.958627170893145
-0.501334400512549 1.239099032547013 -1.951662281972343
-0.499847193726026 1.251203808942253 -1.945872682479905
-0.498042948631467 1.26241107006425 -1.938848873431726
-0.492861786319043 1.264838177930878 -1.918678944833973
-0.490973108956263 1.275491636260551 -1.911326446445704
-0.49056184739701 1.28991063999138 -1.909725431888554
-0.488991111414036 1.301218283920371 -1.903610658655814
-0.487110087541604 1.31159126885953 -1.896287954808715
-0.485754791637643 1.323277654367894 -1.891011875820384
-0.483682708047746 1.332903184806131 -1.882945388893972
-0.480651926632545 1.339725693126953 -1.871146753558148
-0.479136854460329 1.350629436171473 -1.865248675927817
-0.477369833763685 1.360719348295656 -1.858369779044658
-0.475665636911841 1.3708787477133 -1.851735451311715
-0.476105864271646 1.387178520027552 -1.85344922785038
-0.471280200491712 1.387997179324309 -1.834663231965898
-0.46940627462019 1.3972976777747 -1.827368160175644
-0.473077086150169 1.423160114340488 -1.841658391207001
-0.46656498149891 1.418299532501091 -1.816307190469279
-0.468078139662899 1.437676931207206 -1.822197816989815
-0.472542721536655 1.466308191570982 -1.839578144449644
-0.462041284228184 1.448309048873172 -1.798696730605941
-0.465127887521996 1.472668722715856 -1.810712676892061
-0.470131455739026 1.503353224711958 -1.83019124320323
-0.454389515489139 1.467360183654246 -1.768908891544622
-0.0 0.0 -0.0
-0.0 0.0 -0.0
-0.0 0.0 -0.0
-0.0 0.0 -0.0
-0.0 0.0 -0.0
-0.0 0.0 -0.0
-0.0 0.0 -0.0
-0.0 0.0 -0.0
-0.0 0.0 -0.0
-0.0 0.0 -0.0
-0.413296963264773 -0.718126850197614 -1.561405517404305
-0.422854015241191 -0.721777335688236 -1.597511356576754
-0.422468736002957 -0.708176066772456 -1.59605579996301
-0.42879717494658 -0.705646785164893 -1.619964176654369
-0.438288337657242 -0.707837533553179 -1.655821091028832
-0.444006742288961 -0.703469269703016 -1.677424802975284
-0.447464537510495 -0.695238231643299 -1.690488098902526
-0.459633761930902 -0.700063604243056 -1.736462533368385
-0.463030762122668 -0.691051170351664 -1.749296150146373
-0.468834250548676 -0.685348419295078 -1.771221302407305
-0.472365116486374 -0.676037530474039 -1.784560654123773
-0.476921467033314 -0.667946513682017 -1.801774211240238
-0.478792498380199 -0.655897683399764 -1.808842830000911
-0.480878923106243 -0.644022671601085 -1.816725189099706
-0.480307897556359 -0.628542209805014 -1.814567896587503
-0.483800693788693 -0.618290243330976 -1.827763423758219
-0.485431656937148 -0.60550189915864 -1.833925082529105
-0.484774470180995 -0.58982960259362 -1.831442279319238
-0.484907556580952 -0.575134896147008 -1.831945069945964
-0.487612847656602 -0.563404045211569 -1.842165460578254
-0.489010216622969 -0.550036280117855 -1.847444617716743
-0.491156103228284 -0.537401885444505 -1.855551619420297
-0.49091679988025 -0.522099304461797 -1.85464754897903
-0.492787109427242 -0.508990365815649 -1.861713440832819
-0.493600311004971 -0.494707342983223 -1.864785656559247
-0.493616166976195 -0.479599785554417 -1.864845559251873
-0.493067309799399 -0.463959880310159 -1.862772017222076
-0.495597689607783 -0.451156724248108 -1.872331605956359
-0.496302251162908 -0.43659236133515 -1.874993387670971
-0.497002251961601 -0.421980953282001 -1.877637939183358
-0.495426656789234 -0.405464271541061 -1.871685456552236
-0.49848724500199 -0.392696411355492 -1.883248133626246
-0.499595383163235 -0.378262735644924 -1.887434598064182
-0.49921557021849 -0.362680160870124 -1.885999692705039
-0.499448949253274 -0.347547556581831 -1.886881381526749
-0.501783238152526 -0.333798227281738 -1.895700153234424
-0.504572078155289 -0.320194313456168 -1.906236185565936
-0.505579332930663 -0.305343525776001 -1.910041519994908
-0.505633176657926 -0.289884417575857 -1.910244937634759
-0.507340505442691 -0.275319309504843 -1.916695100160747
-0.508327858754353 -0.26028093128428 -1.920425248324139
-0.508073566734584 -0.244584329378007 -1.919464551783899
-0.50809567152922 -0.229027897424306 -1.919548062071597
-0.510852462148772 -0.214619005410839 -1.92996301419148
-0.51233064337263 -0.199543193463094 -1.93554747409272
-0.513831371307909 -0.184384894996188 -1.941217113810747
-0.512997885803496 -0.168368536879096 -1.938068266901769
-0.515085495663556 -0.153272473284999 -1.945955103349673
-0.515769565549239 -0.137673843505254 -1.948539469044885
-0.515149849561767 -0.121725223814083 -1.946198227642048
-0.516232885148778 -0.106164753611815 -1.950289856401538
-0.518907086641601 -0.090816396670543 -1.960392792877433
-0.521253082308679 -0.075256789691835 -1.969255791892587
-0.522713212430286 -0.059452672020401 -1.974772056057697
-0.522388061583967 -0.043410725400958 -1.973543660084445
-0.524804350414095 -0.027532525433227 -1.982672221497532
-0.525151290028048 -0.011461102322863 -1.983982933831716
-0.525240624902424 0.004629309462056 -1.984320434413972
-0.524161412669125 0.020679094095465 -1.980243250003488
-0.526642551893408 0.036912293229961 -1.989616811434091
-0.527371366404661 0.053121019004365 -1.992370219032457
-0.528466408874246 0.069422513624296 -1.996507208910865
-0.527200791225374 0.085408671692777 -1.991725798555795
-0.529356683630483 0.101976404605739 -1.99987060143476
-0.529398787215865 0.118204275081158 -2.000029665682411
-0.52864524259246 0.134232695869762 -1.997182829539944
-0.530047925615798 0.150828510645424 -2.002482062794666
-0.532767935129506 0.167925490419467 -2.012758058602976
-0.53468385459513 0.184911061419954 -2.019996261373441
-0.536055254632793 0.201809037038228 -2.025177309810043
-0.536430645719186 0.218385562897548 -2.026595509713687
-0.53929471667008 0.236074502768452 -2.037415759031846
-0.540252216802621 0.253045933063876 -2.041033124081074
-0.54148530441907 0.270213559742105 -2.045691638367162
-0.541021638636312 0.286558041244525 -2.04393994315578
-0.543780954111545 0.304679944385143 -2.054364433994653
-0.544716868858449 0.321893412594744 -2.057900251045162
-0.546520055938689 0.33970330501733 -2.064712559158338
-0.546169089121985 0.356218722065159 -2.063386632348474
-0.548663334823165 0.374655490382756 -2.072809709084438
-0.549026515669271 0.39172460426793 -2.074181779598689
-0.548310207627273 0.408012695126775 -2.071475620520963
-0.546582007245217 0.423472914053242 -2.064946606636109
-0.547966366193957 0.441334102108185 -2.070176612885265
-0.547483061517945 0.457718673662533 -2.068350723380167
-0.547323838150809 0.474354504885638 -2.067749189214562
-0.545559596104373 0.489540367592324 -2.061084012573575
-0.546119035868292 0.506774398658973 -2.063197534838872
-0.546026126675765 0.523417372240519 -2.062846530745633
-0.545598991650773 0.539724025788811 -2.061232846049208
-0.544836574555111 0.555662561970037 -2.058352490359377
-0.546451485557092 0.574051782899611 -2.064453505301976
-0.545981772063968 0.590286175287258 -2.062678962285814
-0.54761263304855 0.60882717133267 -2.068840235089102
-0.546458565728442 0.624286535631322 -2.064480253668386
-0.548982389865779 0.643989572425671 -2.074015075559813
-0.54931645340518 0.661211447671504 -2.075277143031745
-0.548038073385847 0.676463494819185 -2.070447517380107
-0.545299649994953 0.689790289759502 -2.060101955298658
-0.546007364849174 0.707414145573622 -2.062775649945241
-0.546169854656712 0.724358262218987 -2.063389524482345
-0.545678295228278 0.740424863415788 -2.061532449129976
-0.543346210168115 0.753907564641684 -2.052722003364222
-0.543628534914596 0.77095502948712 -2.053788605483371
-0.543951892916013 0.788079243216925 -2.055010228220495
-0.542899485965699 0.803187907625822 -2.051034312196833
-0.540792447206234 0.816639506873067 -2.04307407479653
-0.541576265764772 0.834415989139213 -2.046035283638416
-0.542278961287195 0.852113027659469 -2.048690015618778
-0.542614474868445 0.86926490154543 -2.049957561242125
-0.54054034616142 0.882503276151531 -2.042121655598459
-0.542101314539454 0.901660703057713 -2.048018879276812
-0.543068409016316 0.919907812463443 -2.051672491052944
-0.540759950260094 0.932565339888508 -2.042951303725092
-0.53645304231277 0.941573767912179 -2.026680122396337
-0.535533935046167 0.956368294260424 -2.023207802769731
-0.535217587305785 0.97220138988133 -2.022012664282991
-0.532990230021324 0.984485278698447 -2.013597872348118
-0.53085249362581 0.99680096802964 -2.005521661537507
-0.530859452989813 1.013078547417269 -2.00554795350265
-0.530623282646475 1.028885121731981 -2.004655719322603
-0.528240781717001 1.040449703392122 -1.995654806112121
-0.523759458923518 1.047670045240259 -1.978724698327778
-0.522288708630647 1.06073004071137 -1.973168311937052
-0.518211527375328 1.068326588221701 -1.957765021147729
-0.516477349292313 1.080575339485996 -1.951213423948483
-0.515617627996937 1.094574159578625 -1.947965460151639
-0.518609987599497 1.116815674259775 -1.959270374556492
-0.518192654305703 1.131793381024593 -1.957693720079339
-0.517127207557145 1.145310102654989 -1.95366854065736
-0.516344072551345 1.159395438662079 -1.950709914227422
-0.516332161872959 1.175188117814752 -1.950664916560851
-0.516739657965296 1.191947499844875 -1.952204406814709
-0.515304387605344 1.204424740066538 -1.946782060999989
-0.51291163326134 1.214546762614405 -1.937742411143844
-0.51105023859665 1.225796676956592 -1.930710199059451
-0.509555966471712 1.237824354200598 -1.925064948917878
-0.507046025307001 1.247262064901024 -1.915582575875544
-0.501103869442866 1.247998053128295 -1.893133548236324
-0.500041910158275 1.260673567293123 -1.889121544196612
-0.499985503202652 1.275849950857209 -1.888908442868614
-0.499203853308074 1.289150001979755 -1.885955427079599
-0.495806763834849 1.295567882121379 -1.873121473002826
-0.495729087390718 1.310553094460912 -1.872828017112223
-0.493620268911085 1.320101610755406 -1.864861056060073
-0.490361635354242 1.326410698084581 -1.852550178248
-0.488378022631595 1.336008058868221 -1.845056235333276
-0.487169313625995 1.347627441477944 -1.840489821645229
-0.486106242436121 1.35958009032747 -1.836473616909172
-0.487835286747989 1.379362351082411 -1.843005819098757
-0.481647239734219 1.376622289761703 -1.819627832788542
-0.481815621051092 1.391865452557272 -1.820263965014425
-0.484652736229357 1.414910116896387 -1.830982377406962
-0.476887306684852 1.406850391737298 -1.801645155957219
-0.478703329607396 1.426874332741756 -1.808505956938175
-0.482659206852074 1.453453392264886 -1.823450970100679
-0.472130039592696 1.436211592405686 -1.783672550916085
-0.474585051273593 1.458220068620463 -1.792947404410203
-0.479148955132571 1.486923417614367 -1.810189497383787
-0.464337737001701 1.455186782479303 -1.754233805073984
-0.0 0.0 -0.0
-0.0 0.0 -0.0
-0.0 0.0 -0.0
-0.0 0.0 -0.0
-0.0 0.0 -0.0
-0.0 0.0 -0.0
-0.0 0.0 -0.0
-0.0 0.0 -0.0
-0.0 0.0 -0.0
-0.0 0.0 -0.0
-0.430359272436171 -0.726316079013267 -1.579211155854571
-0.442605020487156 -0.733811749243995 -1.624147150435165
-0.44157214935533 -0.718958607150622 -1.620357011083206
-0.443935306162961 -0.709595219400351 -1.629028657850615
-0.453247755243001 -0.710992268411124 -1.663200858654557
-0.457536476208739 -0.704104032943924 -1.678938398025095
-0.461586948679649 -0.696600990966412 -1.693801680222624
-0.472184875892448 -0.698543078029723 -1.732690966350111
-0.478167219477512 -0.69316353054282 -1.75464328464038
-0.48380297270122 -0.6869358148398 -1.775323783313367
-0.487873239625045 -0.67819647642135 -1.790259701614893
