ply
format ascii 1.0
element vertex 863
property double x
property double y
property double z
end_header
0.798627653719353 3.596571447569382 -1.181985737895893
0.815551562489733 3.594279094788394 -1.181610974270708
0.832922425202217 3.593998422452348 -1.181897287418456
0.849817128997470 3.591706413762656 -1.181522025179198
0.867177900027655 3.591425995692031 -1.181808120168433
0.884538896270460 3.591145045225293 -1.182094174714273
0.901394842167929 3.588853966131841 -1.181718379830826
0.918746148993540 3.588573435549937 -1.182004291288069
0.935572857634078 3.586282751122820 -1.181627876170126
0.952914553400152 3.586002302511016 -1.181913689062316
0.970255662371931 3.585721736730613 -1.182199401028466
0.987043639765973 3.583431781168316 -1.181822420668583
1.003812275840566 3.581142173559682 -1.181445150562339
1.021134184750463 3.580861919395181 -1.181730633344731
1.037873726794078 3.578572723565589 -1.181352827836843
1.055185785278538 3.578292956253804 -1.181638094023480
1.071895992463982 3.576003895190226 -1.181259811415430
1.089198501762368 3.575723693690662 -1.181544801258312
1.105879208235042 3.573435446743190 -1.181166062170065
1.122541018018075 3.571147662961645 -1.180787065589142
1.139824150900369 3.570868209585894 -1.181071919747026
1.156456572763125 3.568580279066856 -1.180692232606133
1.173729760839213 3.568301417084096 -1.180976905428940
1.191003241390623 3.568022109368816 -1.181261597362056
1.207596900501873 3.565734924383374 -1.180881333731991
1.224170717617203 3.563448113047264 -1.180500731026668
1.241424856571001 3.563169100994845 -1.180785056198430
1.257969466610804 3.560882819212358 -1.180404052750829
1.275213619211486 3.560603850161604 -1.180688209155247
1.291729650224620 3.558318383674008 -1.180306643976704
1.308964344931875 3.558040116902225 -1.180590852252460
1.325451017285778 3.555754939833324 -1.180208939382676
1.342675720255768 3.555476176141512 -1.180492709152896
1.359900276139769 3.555197445910498 -1.180776494045626
1.376348088930674 3.552913057137128 -1.180393997975879
1.393563113835802 3.552634459653205 -1.180677542760456
1.410778448274883 3.552356362905182 -1.180961305143275
1.427187103954551 3.550072173925969 -1.180578118309179
1.443576672835710 3.547788388339408 -1.180194454890772
1.459946309221685 3.545505177297618 -1.179810502051074
1.477968025079564 3.547232804648246 -1.180761324462354
1.491782649235297 3.538934207418273 -1.178374136152768
1.502954758316544 3.524622646062322 -1.173982344059554
1.513991111456553 3.510312906816796 -1.169588210497571
1.512650209446469 3.467941375104688 -1.155838304489643
1.510016649931819 3.423572277292805 -1.141413514928588
1.509637147069223 3.385222394992601 -1.128986745407223
1.512502339947536 3.354895447346262 -1.119228455630795
1.515989264877603 3.326576829942482 -1.110134160830812
1.515512010603022 3.290247371296433 -1.098359471724495
1.515617446297086 3.255927309741472 -1.087248263844272
1.518219461447720 3.227622887060948 -1.078139215370795
1.516740924139617 3.191309881158625 -1.066348161618107
1.517798151672806 3.161011595197492 -1.056559992206699
-0.717727980593517 1.631307728584805 -0.520202510370908
-0.689572424906033 1.584402104593425 -0.505408815976287
-0.692505817526433 1.608684382583820 -0.513320984175297
-0.683951133463696 1.606526557174493 -0.512798593855422
-0.675415843143061 1.604369062633369 -0.512275955221475
-0.666899989539026 1.602211604572691 -0.511752866407059
-0.656730391717746 1.595988511394567 -0.509930296986093
-0.648272925087417 1.593832356929720 -0.509406361667067
-0.636157610991159 1.582528652569037 -0.505957355594454
-0.624552879173719 1.572243032652889 -0.502831659813251
-0.609455838546347 1.552813181124018 -0.496778470914919
-0.595725376366025 1.536434450311787 -0.491697716913732
-0.578259041383162 1.509897498792323 -0.483361566131535
-0.560661076172752 1.482348493283985 -0.474695927753282
-0.516387043606947 1.382673379071030 -0.442919985932690
-0.497786389568638 1.350059261036568 -0.432612431599872
-0.484302910475910 1.330655439242877 -0.426532599173961
-0.473557822167899 1.318364122680907 -0.422729352717322
-0.466169347146744 1.315215437806664 -0.421856076934593
-0.459164979705812 1.313082522218330 -0.421308081228189
-0.452530427007588 1.311965442223068 -0.421085776545428
-0.447632503288151 1.315925299274400 -0.422493208476500
-0.443717311542163 1.322930612075319 -0.424879581889895
-0.441412454240550 1.335010823433773 -0.428897816441438
-0.439652625409343 1.349119386986693 -0.433570487050223
-0.441668036223885 1.375406463732906 -0.442161204513514
-0.444715285033705 1.405749543665275 -0.452061758886736
-0.450633126748126 1.446236779954637 -0.465231755834824
-0.452114304266420 1.473525104290536 -0.474163050715541
-0.450267928648869 1.490661869624052 -0.479832255951384
-0.447049582252943 1.503736823645007 -0.484197121608017
-0.446079380680706 1.524926961680993 -0.491178726154770
-0.907909786811619 3.155126748945710 -1.016593604912555
-0.966284728472702 3.414576732694866 -1.100544219979345
-0.970244142906370 3.487345557371997 -1.124360587549357
-0.968511686596957 3.541846683639378 -1.142300530567137
-0.956989407970160 3.561855915290060 -1.149124119534921
-0.946343261151702 3.585918782453088 -1.157260162286528
-0.931259267891491 3.593752940876599 -1.160162261565456
-0.919192834107098 3.613753929938218 -1.166994951216339
-0.907437812128277 3.635779196240646 -1.174485761979060
-0.894476223525451 3.653745648814136 -1.180669828605070
-0.877933233790845 3.657517680653970 -1.182269275195444
-0.862305060179279 3.665343075096631 -1.185180393724212
-0.847533537134818 3.677222035108669 -1.189404095322015
-0.831730514411491 3.685044907951570 -1.192318087687966
-0.817193083555552 3.698947051500806 -1.197201372882503
-0.802081231729657 3.710819952545546 -1.201430560249804
-0.785996344826991 3.718638401533100 -1.204349205309088
-0.770252168096130 3.728481777387590 -1.207925765058605
-0.754410802898472 3.738323300341693 -1.211503543950911
-0.738073092841550 3.746137581261108 -1.214426296999722
-0.721268130432882 3.751924400597136 -1.216693451790836
-0.704784583788741 3.759736401167630 -1.219618713625150
-0.685263259411759 3.751342690365232 -1.217286904992873
-0.666900428631951 3.749026099582938 -1.216926021146233
-0.645401929733979 3.728482563453163 -1.210646574072447
-0.621371085434193 3.691741579907441 -1.199101677790345
-0.593716557548537 3.630706902009784 -1.179655919845426
-0.570823539343505 3.596003919774092 -1.168755776695324
-0.552001672028285 3.585602137467239 -1.165749324305970
-0.534484439529253 3.583299145259812 -1.165374477047189
-0.517279046278732 3.583021435495902 -1.165658223245203
-0.500073670388890 3.582743164539627 -1.165941733210178
-0.483959529411677 3.590560563346928 -1.168860725768577
-0.467504525048917 3.596353606092168 -1.171122161236173
-0.450737851552752 3.600121808481925 -1.172725261141637
-0.433688543498914 3.601865416458589 -1.173669458074849
-0.416619927710569 3.603609030814741 -1.174614168538157
-0.399307648997537 3.603329071700025 -1.174899525548598
-0.381137350747527 3.594957082414755 -1.172545474873905
-0.363659343849958 3.592655141259690 -1.172170190739337
-0.346590554126662 3.594398624177698 -1.173114773794542
-0.329317061580983 3.594118852977356 -1.173399370039790
-0.312219267838928 3.595862266466007 -1.174344574509251
-0.294936095234825 3.595583236583739 -1.174629433985248
-0.277809030771666 3.597325599384292 -1.175575148073277
-0.260516212415904 3.597046231316637 -1.175860198701614
-0.243223477943702 3.596766353484630 -1.176145032867608
-0.225930543595603 3.596486813056649 -1.176430059773083
-0.208755008310085 3.598228859418257 -1.177376520444896
-0.191344798865790 3.595928145132936 -1.177000198832581
-0.174051820175023 3.595647889350556 -1.177284976250933
-0.156759137829630 3.595368951213172 -1.177570148288563
-0.139466204675304 3.595089120991648 -1.177855096173749
-0.122173260460150 3.594809658921373 -1.178140181044643
-0.104939380764132 3.596550495050451 -1.179087470700667
-0.087636722038517 3.596270581182688 -1.179372573567881
-0.070334074399090 3.595991232759472 -1.179657862365608
-0.053001729237789 3.593691099169012 -1.179280054991646
-0.035729082686754 3.595431684854612 -1.180228094932037
-0.018426431456302 3.595152059508449 -1.180513373860000
-0.001123877087058 3.594872035366301 -1.180798458564085
0.016178777770535 3.594592315201080 -1.181083584199863
0.033481427230410 3.594312256153471 -1.181368661767328
0.050755339822865 3.592013328181060 -1.180990014581693
0.068048171561985 3.591733926523986 -1.181275002747634
0.085341113336612 3.591454673624270 -1.181560105501244
0.102634043499877 3.591175079797526 -1.181845034938445
0.119926975283062 3.590895360945576 -1.182130080336180
0.137219808161609 3.590615918358639 -1.182415074964486
0.154512628429934 3.590336017798391 -1.182699951462035
0.171708899076831 3.588038767031403 -1.182319998605650
0.188992008702865 3.587759221775852 -1.182604843973691
0.206275099186587 3.587479757985449 -1.182889607078273
0.223684146501936 3.589217796962687 -1.183840000474889
0.240976997345012 3.588938296878042 -1.184124965186460
0.258124815982878 3.586641211689883 -1.183744014391180
0.275407745936079 3.586361867596973 -1.184028954969899
0.292690835387409 3.586082530617694 -1.184313698847665
0.309974177131536 3.585803349623991 -1.184598670697398
0.327257265319871 3.585523477400726 -1.184883425859011
0.344346588838298 3.583227639859939 -1.184501655801742
0.361620001258132 3.582948727481347 -1.184786498128680
0.378680361641836 3.580653190271655 -1.184404178283892
0.395943806272519 3.580374063887037 -1.184688621916777
0.412975028527250 3.578078960341295 -1.184306057140696
0.430229011816539 3.577800236618321 -1.184590423643757
0.447483128308016 3.577521141259825 -1.184874716276939
0.464736905304216 3.577242649570584 -1.185159228343783
0.481719311912772 3.574948382398798 -1.184775553953473
0.498963751974619 3.574669389756664 -1.185059802822375
0.515916978165958 3.572375677491316 -1.184675856875296
0.533151700001220 3.572097062183491 -1.184959933375956
0.550386178003608 3.571818215288965 -1.185243799706523
0.567300501223737 3.569525207399437 -1.184859226321542
0.584525290999761 3.569246652253585 -1.185143031748179
0.601750063415578 3.568968315308131 -1.185426887824551
0.618276282736571 3.564661999915649 -1.184372523726430
0.635481801387388 3.564383740937079 -1.184656085428484
0.652687167007499 3.564105652662899 -1.184939646917414
0.669892275496578 3.563827448418653 -1.185223221629000
0.687097796886606 3.563549291399716 -1.185506719863890
0.704303198598058 3.563271348958892 -1.185790310445489
0.721508673943846 3.562992630278589 -1.186073672183249
0.738714132058952 3.562714907874554 -1.186357383987612
0.755919454993145 3.562436948536439 -1.186641022692408
0.773124548322967 3.562158432487966 -1.186924496810725
0.789883629995461 3.559868014845032 -1.186537369140015
0.806623017500344 3.557577901366902 -1.186149823517167
0.823809172549327 3.557300320718969 -1.186433131624659
0.840519334647800 3.555010126927180 -1.186045108401995
0.857695311628520 3.554732593286421 -1.186328173094749
0.874376552572374 3.552443100874160 -1.185939680386156
0.891543075432634 3.552165771829752 -1.186222614564726
0.908709697197349 3.551888088262261 -1.186505517600579
0.925351927696220 3.549599643594296 -1.186116465466620
0.942508935778407 3.549322315671411 -1.186399297197658
0.959121579353253 3.547033643074682 -1.186009466861491
0.976268598312778 3.546756526834373 -1.186291994732813
0.992852655766967 3.544468804695931 -1.185902014941196
1.009989951466722 3.544191740375179 -1.186184445074062
1.026544880468766 3.541904709208761 -1.185793930259898
1.043672275703242 3.541627761029909 -1.186076134011125
1.060198054653903 3.539341159670589 -1.185685251267055
1.077316089117320 3.539064797910258 -1.185967456564010
1.093812182672999 3.536778114412459 -1.185575848466850
1.110920413568321 3.536501380821149 -1.185857713657154
1.127387541889913 3.534215453271088 -1.185465652299034
1.144486289337642 3.533939350689138 -1.185747558384994
1.160924115445154 3.531653872145073 -1.185354981492946
1.178012888882110 3.531377681841608 -1.185636696336105
1.195101713418371 3.531101281589487 -1.185918257505755
1.210811339720432 3.526808106187858 -1.184850447832970
1.227880945201954 3.526532718434919 -1.185131957696110
1.244240998083977 3.524248179925186 -1.184738158003122
1.260581803606944 3.521964201177854 -1.184343920729949
1.277631783564204 3.521688364986844 -1.184624897365809
1.294681672725920 3.521413161558152 -1.184905973238259
1.310983828929128 3.519130180110949 -1.184511371940342
1.328023794805395 3.518854328583138 -1.184792047964494
1.345063751316308 3.518578948062629 -1.185072915784931
1.361327039618778 3.516296307242401 -1.184677433284241
1.378357368844008 3.516021124825378 -1.184958149291246
1.394591554815290 3.513739152268443 -1.184562471827092
1.410805958555966 3.511457089119315 -1.184166141228939
1.427001128109910 3.509175653636197 -1.183769730517642
1.442350932429575 3.504888351918909 -1.182695844989011
1.460168344559601 3.506620074698696 -1.183652908704278
1.476314728508383 3.504339176032979 -1.183255631945538
1.491586850908750 3.500053656931281 -1.182180607834228
1.505091361798194 3.491756875576694 -1.179749633750715
1.513272530941569 3.471428511545440 -1.173250641478652
1.515955553623972 3.439071781421484 -1.162680811597458
1.512072376994130 3.392684373529584 -1.147358985345287
1.510451798348932 3.352318877613166 -1.134064665366912
1.514834444715022 3.325993322104602 -1.125513027144191
1.515272785092855 3.291653373179617 -1.114242738973200
1.516313601705775 3.259323677673362 -1.103645876856574
1.519869335357083 3.233011009999545 -1.095080452690783
1.530788897132344 3.222737223935114 -1.091943539457105
1.522377056348465 3.172383383184522 -1.075220442221463
-0.707551361424411 1.608593098037626 -0.520389851933131
-0.677291001909772 1.556582829432010 -0.503725677696082
-0.681675599637686 1.583929388803803 -0.512739588627555
-0.672809371273400 1.580755434759793 -0.511876124295883
-0.664828298034878 1.579616168228449 -0.511671141978877
-0.656433890515046 1.577460108986741 -0.511136447603415
-0.647222185374862 1.573270343037117 -0.509942235948574
-0.638462759609739 1.570098064896030 -0.509076961356890
-0.625237343607301 1.555741202446068 -0.504583495808768
-0.612551762261571 1.542403176422378 -0.500417703243606
-0.600391648622135 1.530084090138404 -0.496579788012184
-0.584407245594720 1.507600730288261 -0.489439567384664
-0.562020267486634 1.467840397058735 -0.476683921455196
-0.522332300176771 1.381330301023030 -0.448733201339460
-0.508137354256567 1.360896423016443 -0.442236537079836
-0.492263720575182 1.335384401488289 -0.434084958437791
-0.480700541097438 1.321054335748641 -0.429564114913321
-0.470733045370318 1.310791018888262 -0.426363098162651
-0.463743196480628 1.308657498157900 -0.425805184121747
-0.456772760732740 1.306524463592398 -0.425247060676002
-0.450872761405459 1.307439260049450 -0.425680779301985
-0.445999528067229 1.311401404713685 -0.427107248305860
-0.442790338637368 1.320441406857690 -0.430188881194894
-0.441172458066731 1.334558335120953 -0.434926910259911
-0.440742001931282 1.352735204693757 -0.440991526311244
-0.445027055514579 1.386141816362290 -0.452026355426927
-0.450275916708372 1.423604617079011 -0.464391373912209
-0.453899923958573 1.457000334353555 -0.475437090604042
-0.454711560181831 1.482268890707916 -0.483836849978665
-0.452214276926600 1.497381693759407 -0.488925897033441
-0.448364413075730 1.508432040717683 -0.492691227129072
-0.447673084053513 1.530645584812558 -0.500106243805328
-0.879519748586504 3.056994731696136 -0.999127237237417
-0.955618129764021 3.377453082784761 -1.104215765775908
-0.965413346334210 3.470551832818117 -1.135015014306310
-0.962107573100098 3.518988678061724 -1.151222890070345
-0.953429098168889 3.549155420824583 -1.161461727279823
-0.944458927038697 3.579316473026121 -1.171705371659000
-0.929414542151149 3.587155163947325 -1.174645461235208
-0.917388346823358 3.607164887928211 -1.181574206863776
-0.905167615835410 3.627171884766482 -1.188506275240437
-0.892255986037598 3.645146920496372 -1.194776443337515
-0.876248623630922 3.650949423482764 -1.197059452269094
-0.860182759346915 3.656750691254457 -1.199343369216097
-0.845460741328794 3.668635508002493 -1.203624420571959
-0.829706950937133 3.676462622679808 -1.206576294562930
-0.815219060608730 3.690371523906685 -1.211526329820984
-0.798842094948990 3.696167673093913 -1.213815351195557
-0.782835580424493 3.703990958547681 -1.216771465929791
-0.766751097576817 3.711812465133303 -1.219728752419577
-0.750179930907220 3.717606304722533 -1.222021175690134
-0.732751812450806 3.719344573256548 -1.222981397199749
-0.714914594341762 3.719056207072086 -1.223275227884885
-0.695937648627450 3.712688058885743 -1.221568925461362
-0.674428078169264 3.692136015100791 -1.215192698606301
-0.653112809233310 3.671587334209144 -1.208813678311112
-0.631641298996808 3.649015116031058 -1.201763791106786
-0.610383577273821 3.626446681079333 -1.194710566028994
-0.588345929030324 3.597804541353281 -1.185650892557202
-0.566580402804988 3.569166377528903 -1.176586884567318
-0.547893631691373 3.558761619688334 -1.173529380526736
-0.530210426732702 3.554435669003180 -1.172474919183228
-0.513443179344871 3.556184866924904 -1.173424286591433
-0.496373897830712 3.555908635807618 -1.173705522236477
-0.480123501983560 3.561707183838795 -1.175992477209828
-0.463025045191634 3.561430991821917 -1.176274382428513
-0.446180136413457 3.563179114974327 -1.177225112851817
-0.429559425476473 3.566950939913475 -1.178844968483152
-0.412197787672415 3.564649765945206 -1.178458049224008
-0.394855555194207 3.562349115902915 -1.178070843982542
-0.377103462340873 3.556000844954380 -1.176344284214305
-0.359819648581940 3.553700798814467 -1.175955953845262
-0.342945487059448 3.555448705160538 -1.176907260943015
-0.325866416576466 3.555172651512248 -1.177188697223712
-0.308963147030250 3.556919379088305 -1.178140165489967
-0.291874357334739 3.556643209521874 -1.178421909741300
-0.274941898165119 3.558390079598499 -1.179374089478549
-0.257990003564211 3.560136062495120 -1.180326394668659
-0.240745181975086 3.557837461274929 -1.179937714738423
-0.223646643606678 3.557560867872956 -1.180219477676427
-0.206548196464902 3.557283966526657 -1.180501103675502
-0.189449699820887 3.557007813512367 -1.180782990247746
-0.172351181245536 3.556731378304010 -1.181064736790861
-0.155341116038016 3.558476975151811 -1.182018198692846
-0.138232874237610 3.558200169082859 -1.182300129185211
-0.121055817363758 3.555902435571243 -1.181910297946599
-0.103957389070307 3.555625476130108 -1.182191798968585
-0.086908244197237 3.557370288402097 -1.183145986981122
-0.069800007855002 3.557093722236540 -1.183427899925445
-0.052691863033841 3.556817221428781 -1.183709837562192
-0.035583837133163 3.556540623756480 -1.183991853271841
-0.018465092628497 3.554243272161725 -1.183600823962393
-0.001366676309425 3.553966834966153 -1.183882584814972
0.015731846041099 3.553690893335189 -1.184164532129234
0.032830367426240 3.553414546492165 -1.184446414826140
0.049928685633779 3.553138023779292 -1.184728117302771
0.067027108945155 3.552861796430884 -1.185010033317902
0.084125613214375 3.552584456379912 -1.185291514578201
0.101224144100177 3.552308523081944 -1.185573432760954
0.118322661537092 3.552032135168129 -1.185855283760545
0.135421076773371 3.551755477614212 -1.186137033459287
0.152519499755556 3.551479187721688 -1.186418831044426
0.169617898223390 3.551202515233530 -1.186700477215748
0.186610189409000 3.548907329368252 -1.186307528719996
0.203698878809219 3.548631180861779 -1.186589203601593
0.220913390602335 3.550373485270394 -1.187545964692564
0.238011782770734 3.550096886722027 -1.187827768317650
0.255110425103210 3.549820626672604 -1.188109535577738
0.272053873530077 3.547526052947685 -1.187715715680773
0.289142566648160 3.547249797980230 -1.187997296362391
0.306231516011917 3.546973587975613 -1.188278973405269
0.323320175390115 3.546697297810049 -1.188560613432747
0.340215292119237 3.544404121771706 -1.188166172235141
0.357294225876306 3.544127681049398 -1.188447541501171
0.374373429559054 3.543851655317541 -1.188729013644538
0.391229335416315 3.541558245293997 -1.188333573702165
0.408298848085033 3.541282684206274 -1.188615014403461
0.425125836100770 3.538989971518616 -1.188219228534621
0.442185598037652 3.538714068294331 -1.188500381981719
0.459244952242434 3.538438659612342 -1.188781612634140
0.476033089515362 3.536146575916402 -1.188385124975566
0.493083124151877 3.535871190032296 -1.188666233070104
0.510132897953379 3.535595242065943 -1.188947097958339
0.526882385087363 3.533304085982199 -1.188550182937066
0.543922462344035 3.533028381612325 -1.188830807397513
0.560642540264863 3.530737586398195 -1.188433411262075
0.577672893728926 3.530462245921471 -1.188714028670636
0.594703343480222 3.530187050299006 -1.188994788508943
0.611384494715227 3.527896892958187 -1.188596566918817
0.628046457968272 3.525607014969173 -1.188198139468478
0.645426013521042 3.527346626213001 -1.189157574946362
0.662446467612827 3.527071412806288 -1.189438134935005
0.679079261310021 3.524781987122725 -1.189039129443178
0.696487993699114 3.526521423612714 -1.189999248209685
0.713508832794665 3.526245832140753 -1.190279647942872
0.730112272562667 3.523956881670844 -1.189880201805376
0.747123236565140 3.523682093708661 -1.190160546377493
0.764134037259403 3.523407151243683 -1.190440967886240
0.781145083266415 3.523131939909112 -1.190721247207876
0.798156098622942 3.522857314574727 -1.191001749154293
0.814701414423380 3.520569098767336 -1.190601262891242
0.831227042971485 3.518281542254798 -1.190200541721449
0.848218319596932 3.518006744683076 -1.190480572521206
0.864715101086613 3.515719700200959 -1.190079481577157
0.881696827618956 3.515445144592880 -1.190359341476611
0.898678742674311 3.515170130497773 -1.190638990730539
0.915136427864464 3.512884042791258 -1.190237293064178
0.931574848685196 3.510597788732548 -1.189835238989744
0.948536929183109 3.510323634748438 -1.190114680938856
0.964946099859942 3.508038039631390 -1.189712069828929
0.981898678070521 3.507763311300334 -1.189991335287885
0.998851387039020 3.507489536475807 -1.190270817368037
1.015804223830051 3.507215432276572 -1.190550184466370
1.032164508215830 3.504930916104099 -1.190146831562396
1.049107575457921 3.504656713486868 -1.190426052315031
1.065438821170285 3.502372258635490 -1.190022146806278
1.081750408487321 3.500087922377586 -1.189617780974461
1.098674044736377 3.499814471584583 -1.189896772173521
1.115597494576031 3.499540827500879 -1.190175586505454
1.132521198324490 3.499267085089584 -1.190454531454764
1.148784338846580 3.496984251964037 -1.190049667166186
1.165698029645632 3.496710401997707 -1.190328344822838
1.181932183513028 3.494427191584495 -1.189922752212115
1.198147000949685 3.492145299019965 -1.189517218866468
1.214342275984525 3.489862785624592 -1.189110924033896
1.231226697354610 3.489589875145458 -1.189389232704179
1.246674130883460 3.485299316346601 -1.188297763131886
1.263539397524321 3.485026161250211 -1.188575468529245
1.280404472749455 3.484753600161083 -1.188853489789759
1.296522193446789 3.482472613937998 -1.188446124295212
1.313377693793620 3.482200225533240 -1.188723960549007
1.329465664595405 3.479919571621521 -1.188315968400735
1.346311456022587 3.479647331622493 -1.188593545369323
1.363157229731397 3.479375127197806 -1.188871178815351
1.378410339598122 3.475087414669860 -1.187776428253645
1.395236766329724 3.474815489556123 -1.188053774041059
1.411247350952488 3.472536006586311 -1.187644580069287
1.427238372992601 3.470257261811693 -1.187235132600477
1.444045249465307 3.469985408769411 -1.187511967397973
1.460007177845584 3.467707187293424 -1.187102087388613
1.479368016781804 3.473455355095943 -1.189440316058965
1.495329871218071 3.471176665963789 -1.189030214713845
1.507776051099201 3.460873115817682 -1.185870085531977
1.515705950377729 3.440540626758533 -1.179270130077343
1.511825997920937 3.394133224862512 -1.163725933933396
1.510208671023237 3.353751472523340 -1.150238447106176
1.513680084228338 3.325408944315932 -1.140872662862805
1.515956552806417 3.295065230543076 -1.130814287979079
1.516076825488893 3.260715945417137 -1.119374335286573
1.519634670426978 3.234393077346956 -1.110683324418615
1.530554702722858 3.224114132005269 -1.107497854901540
1.523108128735380 3.175744213345093 -1.091221911028135
-0.696476302432618 1.583823045653991 -0.519686772911173
-0.666776369860055 1.532810591159775 -0.503107929287757
-0.669528163018626 1.556100007130566 -0.510914017035241
-0.661663744766547 1.554962068715394 -0.510702250432375
-0.652524562112196 1.550771855034177 -0.509487404627912
-0.643424304491461 1.546582220275772 -0.508271934622561
-0.633107587991176 1.539340896489194 -0.506052401089797
-0.624513228068074 1.536169948069840 -0.505169925899730
-0.610634548823453 1.519775145389075 -0.499936755882846
-0.600546328350984 1.512537721468408 -0.497713543332019
-0.587333994117326 1.497164359910445 -0.492810732242184
-0.568355428425728 1.466538230271639 -0.482882555972588
-0.530593337274304 1.386086658694351 -0.456536961680020
-0.512820553983448 1.356490604274055 -0.446930224704636
-0.500263983863757 1.340117400440291 -0.441675351625808
-0.488237609075265 1.324763365002263 -0.436753112406439
-0.477836407693577 1.313478047909956 -0.433169492658271
-0.469002043208930 1.306260710340704 -0.430925528374157
-0.461676267853155 1.303110405031074 -0.430022199300510
-0.455090047757503 1.301993164713465 -0.429789303487567
-0.449564837544234 1.303925132554270 -0.430563094072588
-0.445056851263850 1.308905488112516 -0.432344224332722
-0.442884959475446 1.320998053821201 -0.436476431940225
-0.441268085436819 1.335120984256630 -0.441282205770154
-0.441831888973472 1.356353711477570 -0.448441621462442
-0.450669995728747 1.403996745012694 -0.464340055626057
-0.455517801724093 1.440458360844752 -0.476549404339408
-0.456851806623104 1.466756789937207 -0.485402915630820
-0.455752386495316 1.485941187270485 -0.491906947124935
-0.453241671871035 1.501060278692339 -0.497068830925502
-0.449378029019036 1.512115094111232 -0.500887629070735
-0.448673653944912 1.534337720636110 -0.508409147771276
-0.797956959279464 2.773981350963522 -0.919460246335698
-0.890374759999809 3.147392796543387 -1.043559721956112
-0.938555877836301 3.374555862587195 -1.119231536153161
-0.946820139463986 3.463626756504275 -1.149135748366265
-0.944413970994275 3.516141223314389 -1.166926288052314
-0.933469156899915 3.538198393393100 -1.174616731306843
-0.923361786346070 3.564311485763517 -1.183658731240689
-0.913002187244360 3.590420996375052 -1.192705114692860
-0.902389612449499 3.616526672970798 -1.201755660147009
-0.887550973952998 3.626392962770498 -1.205413797612094
-0.871154259446117 3.630170528940778 -1.207049495025733
-0.854718547637016 3.633947000746041 -1.208685672974770
-0.839646441728431 3.643809681294035 -1.212347779798522
-0.823104146247435 3.647585301867907 -1.213985984095241
-0.807866795891607 3.657444733833066 -1.217650557073671
-0.791655684124226 3.663246979128759 -1.219965952006357
-0.774529043272972 3.664991215530245 -1.220931016004083
-0.756963956897886 3.664707458650132 -1.221220447742265
-0.738989630433985 3.662395086020348 -1.220833853424459
-0.721434376274929 3.662111307290802 -1.221123151035615
-0.703879139075006 3.661827658793260 -1.221412579430238
-0.683283634500846 3.645324954289027 -1.216290332971473
-0.662843560017584 3.628823555114517 -1.211165081472756
-0.643640814393903 3.618406789979373 -1.208068006642482
-0.625237121220367 3.612045745113761 -1.206323154279786
-0.606891564499359 3.605685233808373 -1.204577228632559
-0.583964551420942 3.570952114687957 -1.193348495209207
-0.562333002178295 3.542304495818686 -1.184146859302939
-0.543781773825740 3.531898198267312 -1.181038955064940
-0.525932017788965 3.525545903622701 -1.179284936954699
-0.509018176022802 3.525272359958317 -1.179563698384104
-0.492104428965066 3.524998846183473 -1.179842371114751
-0.475190649742350 3.524725162780252 -1.180121054291290
-0.458803634470392 3.528503142920342 -1.181756683144665
-0.442124138921141 3.530254606144819 -1.182714354899950
-0.425181138334470 3.529980590304918 -1.182993568298194
-0.408003998526092 3.527681491155008 -1.182593799757926
-0.390846373559489 3.525383035203020 -1.182193916711601
-0.373278499172232 3.519035214160048 -1.180435336840786
-0.356179245199094 3.516737348529420 -1.180034365784121
-0.339294600951415 3.516464467293746 -1.180312576053621
-0.322595535987296 3.518215568670382 -1.181270575121783
-0.305877141644608 3.519966828969162 -1.182228855243539
-0.288973043946004 3.519693563317629 -1.182507471392669
-0.272068918429994 3.519420200814764 -1.182786008312080
-0.255311653932452 3.521170622964526 -1.183744850106286
-0.238397997037726 3.520896977553118 -1.184023487666834
-0.221356902800872 3.518600502018185 -1.183621836766921
-0.204452863596004 3.518326736748553 -1.183900252095346
-0.187656658567139 3.520077238594059 -1.184860004593224
-0.170742786675078 3.519803221548437 -1.185138566918408
-0.153829165300376 3.519529588299998 -1.185417248545254
-0.136994029056523 3.521278805404330 -1.186377461980550
-0.120001512321600 3.518982742128208 -1.185974829363681
-0.103087784643099 3.518709925809568 -1.186253641818909
-0.086223493116928 3.520458385722570 -1.187214429079797
-0.069260127637281 3.518162747033729 -1.186811049078222
-0.052346394369093 3.517889426319966 -1.187089842241851
-0.035432762431339 3.517615446446278 -1.187368515935505
-0.018518930991830 3.517341967036979 -1.187647131368074
-0.001605207566746 3.517068593077626 -1.187925911361660
0.015308621087346 3.516795119599293 -1.188204710323885
0.032203930918537 3.514500800097025 -1.187800558523794
0.049107842140400 3.514227763463451 -1.188079148268912
0.066049799850367 3.515974623612646 -1.189040952174218
0.082963635714571 3.515701466953081 -1.189319699755793
0.099877469120913 3.515427984018781 -1.189598562358357
0.116791297469538 3.515154575808116 -1.189877299454681
0.133628184525254 3.512861176006318 -1.189472092554678
0.150618743774998 3.514607391379439 -1.190434636790835
0.167532486530176 3.514334435013440 -1.190713581502207
0.184446224587515 3.514060891168572 -1.190992245061885
0.201244227894923 3.511768146669455 -1.190586432511947
0.218148430203297 3.511494727491431 -1.190865055500046
0.235052415419089 3.511221206861052 -1.191143514677008
0.251956652599325 3.510948182312188 -1.191422262100015
0.268860454870651 3.510674849655086 -1.191700771066323
0.285764449771441 3.510401325092997 -1.191979308697214
0.302668677885447 3.510128388575613 -1.192257990037558
0.319572664525993 3.509855004986504 -1.192536523199346
0.336283176531576 3.507563343442877 -1.192129212272082
0.353177480037823 3.507290230854384 -1.192407611563084
0.370071950331148 3.507016943897467 -1.192686096960283
0.386743392142180 3.504726467486523 -1.192278038324273
0.403628169509665 3.504453366948448 -1.192556331740786
0.420270608948407 3.502162862286615 -1.192147786417593
0.437145681201209 3.501890081055346 -1.192426010503676
0.454020359340458 3.501617659067885 -1.192704189569324
0.470895219903906 3.501344703822592 -1.192982210342405
0.487770211915992 3.501071698554477 -1.193260287036338
0.504354358439530 3.498782062307783 -1.192850705288878
0.521219796461551 3.498510085433979 -1.193128948899505
0.537774716048860 3.496220600389159 -1.192718900594700
0.554630124526817 3.495948181229929 -1.192996696469490
0.571155965844552 3.493659563820086 -1.192586221550290
0.588001648897273 3.493387262801508 -1.192863895911454
0.604847345120619 3.493115170802591 -1.193141652528300
0.621334494489252 3.490827347698690 -1.192730604744324
0.638170414989910 3.490554906412013 -1.193008090790176
0.655006218513976 3.490283020103704 -1.193285541006360
0.671454468659628 3.487995530985305 -1.192873861640026
0.688678257713459 3.489738215513634 -1.193840371615244
0.705514501656172 3.489466316936565 -1.194117998650096
0.722350481740542 3.489194032356557 -1.194395428757781
0.739186455487704 3.488921980755543 -1.194672942148451
0.756022155473673 3.488649609940920 -1.194950238020692
0.772412130739527 3.486363404677693 -1.194537706353551
0.789238401557332 3.486091685762525 -1.194815156395355
0.805599176764309 3.483805659358540 -1.194401994753760
0.822415662125997 3.483533432592135 -1.194678952780375
0.838746924468251 3.481248425046422 -1.194265487215873
0.855553840190728 3.480976581232067 -1.194542416718541
0.872360760059442 3.480705200606248 -1.194819527204660
0.888653381868408 3.478419990845109 -1.194405139759025
0.905450425326735 3.478148246555289 -1.194681890308059
0.921714178199017 3.475864797189089 -1.194267493166150
0.938501221644897 3.475592821146367 -1.194543961932342
0.954735448815325 3.473309301789155 -1.194128743653893
0.970950416567606 3.471025637390600 -1.193713237276260
0.987718444689074 3.470754756384551 -1.193989659212525
1.004486500772440 3.470483661909304 -1.194265931233284
1.020662127667870 3.468200729494169 -1.193849872723870
1.037420647115888 3.467929839118158 -1.194126116673325
1.054178757879762 3.467658605995989 -1.194402167260628
1.070315589803426 3.465376814388985 -1.193985490373414
1.087064253703060 3.465105759515573 -1.194261376184034
1.103812535894265 3.464834656012749 -1.194537288383176
1.119911115829785 3.462553685164780 -1.194120079649687
1.136649522798114 3.462282747251220 -1.194395917157769
1.152718455964433 3.460001823738830 -1.193977882060692
1.169447942321926 3.459731730212253 -1.194253751009956
1.185487560690561 3.457450821981002 -1.193835267622482
1.201508104056303 3.455170547765415 -1.193416513802409
1.218217503166548 3.454900276922552 -1.193691878794507
1.234208784729471 3.452620479607199 -1.193272743650712
1.250180774522248 3.450341174584068 -1.192853295367685
1.266132945460708 3.448061628549082 -1.192433385803000
1.282813610227401 3.447792047985266 -1.192708391715068
1.298736830533439 3.445513521188487 -1.192288058295801
1.315407237482638 3.445243932301093 -1.192562855389689
1.332078204732172 3.444974454478041 -1.192837500248121
1.347962525082146 3.442696204899470 -1.192416528187396
1.363827496700904 3.440418477358083 -1.191995397175460
1.380478918152427 3.440149271629294 -1.192269748441851
1.396314708031539 3.437872046242809 -1.191847887020681
1.412130760221336 3.435595227156418 -1.191425941536932
1.428762709297501 3.435326030944472 -1.191700000680842
1.444549794647331 3.433049490673510 -1.191277345237243
1.463735206129156 3.438803238621247 -1.193641869146680
1.481250834203706 3.440541513562020 -1.194613233641625
1.495290190729915 3.434250799558421 -1.192796535769276
1.507503423306352 3.423946636242163 -1.189584013459892
1.512473221681796 3.397589612797401 -1.180790403323056
1.515383580288723 3.367223064640613 -1.170597468314490
1.514351560961825 3.328835327029421 -1.157608480345443
1.513872336371106 3.292459817102471 -1.145311530424979
1.515840195755515 3.262108708126748 -1.135102865076810
1.519400072616272 3.235774699468957 -1.126286111427496
1.529368914308183 3.223485554217834 -1.122353998593332
1.519993541930767 3.171083812794864 -1.104448575847959
-0.683159114952774 1.553939956414902 -0.517047818675785
-0.651830151855713 1.498835758141235 -0.498869185633591
-0.655624744251267 1.524173780535701 -0.507461720861171
-0.645317249857525 1.516929704576726 -0.505208164014593
-0.634649458032297 1.508668552997016 -0.502614345557027
-0.623636195621022 1.499391031512178 -0.499680086862158
-0.613547440950673 1.492150402710529 -0.497422914372594
-0.609317782147884 1.499159505069244 -0.499916010012725
-0.594800214483551 1.480725415110654 -0.493923598936789
-0.584093128970576 1.471452718688087 -0.490984179323644
-0.563097437591218 1.435725718976953 -0.479213113763972
-0.531403977908054 1.371515835055477 -0.457924643388830
-0.518233199289477 1.354114683023468 -0.452256183097151
-0.503305304176325 1.331629886566481 -0.444885739317239
-0.493906085880524 1.323389234071283 -0.442270994102196
-0.484209879122430 1.314132798569495 -0.439314983704146
-0.474971141171841 1.305894943928008 -0.436697665716566
-0.466540204599562 1.299692211684262 -0.434759353002491
-0.459968531732054 1.298574859415239 -0.434521444893167
-0.454117292951423 1.299491371297192 -0.434964099796145
-0.448957316652007 1.302441179589596 -0.436087770175070
-0.445496213836866 1.310473807480036 -0.438914397528629
-0.442298061223554 1.319521582801919 -0.442082903571354
-0.442035490119890 1.337716664499653 -0.448318921020796
-0.445239346275224 1.367089568289015 -0.458306012313858
-0.455010894983729 1.417801084177678 -0.475455117376623
-0.459476771058644 1.453260903494522 -0.487498696421256
-0.458539200630594 1.472456160986534 -0.494092018852883
-0.456793677139469 1.489616050280418 -0.500006239703158
-0.453349228533357 1.501693173704727 -0.504217414108000
-0.450090118771452 1.514784540196102 -0.508771817437050
-0.447298619767566 1.529905388455637 -0.514010892755125
-0.626371234887072 2.177864162215428 -0.731937509758875
-0.613652423527508 2.169569988201406 -0.729377546479924
-0.859717388014091 3.091600869300174 -1.039674987812527
-0.922087166166529 3.373687000605422 -1.134891646708238
-0.922303929220639 3.434354745070496 -1.155660222840222
-0.909080729898063 3.446274108214911 -1.160032807208575
-0.903104362194828 3.486620477195377 -1.173979398695588
-0.904483307980781 3.557417833991575 -1.198190945520194
-0.895557410750115 3.589627889402946 -1.209416540194437
-0.880358724170981 3.597470529144430 -1.212436665004620
-0.864595378088294 3.603282483138351 -1.214773799287128
-0.847818615662926 3.605033143000186 -1.215742666742920
-0.832425560862308 3.612873146834855 -1.218765984994338
-0.815122995280292 3.612593129386414 -1.219051056070332
-0.798716748672296 3.616372140143383 -1.220706264985915
-0.781394683506347 3.616091809072567 -1.220991714194761
-0.764072776238624 3.615811774691107 -1.221277108925106
-0.747588842447745 3.619590049153501 -1.222933816713963
-0.729837983454793 3.617280637069812 -1.222533876875748
-0.711707061253571 3.612943371596264 -1.221447914189923
-0.695174524582763 3.616720236240325 -1.223105174850672
-0.675941906242705 3.606298681566125 -1.219959975754150
-0.656436110844864 3.593850536749656 -1.216127068687818
-0.637768252611788 3.585459795977655 -1.213664966536951
-0.618476368171063 3.573015451908474 -1.209828681139271
-0.598959618711051 3.558544532883630 -1.205303308304764
-0.577921311124848 3.533938857417539 -1.197341200594961
-0.557437960315106 3.511364079427066 -1.190062240313002
-0.539041532726124 3.500956185384039 -1.186903507770645
-0.521044407637146 3.492576317812290 -1.184430306850046
-0.504588527030210 3.494332457459327 -1.185393913569917
-0.487547380438867 3.492034997219283 -1.184982399179260
-0.470525666482596 3.489737839398023 -1.184570759318772
-0.454050314849519 3.491493547208091 -1.185534577570367
-0.437555616876410 3.493248779431092 -1.186498691224361
-0.420797395514126 3.492978330327345 -1.186775056073877
-0.403570410217366 3.488655374350750 -1.185674191921738
-0.386606987411048 3.486358516694017 -1.185261164455267
-0.369233097412756 3.480011341815721 -1.183470291343838
-0.352533289951878 3.479741125779952 -1.183745448112055
-0.335833376315323 3.479471624153814 -1.184020730386189
-0.319319111734575 3.481226275314965 -1.184985206044264
-0.302785544506582 3.482981198404871 -1.185950255460487
-0.286066151477605 3.482711341093252 -1.186225799054509
-0.269346716566244 3.482440815499222 -1.186501276580897
-0.252627435525312 3.482170461316409 -1.186776888507437
-0.235908201310786 3.481900419861597 -1.187052496832129
-0.219188759305688 3.481629706158841 -1.187327911407418
-0.202469464826611 3.481359818756153 -1.187603578618760
-0.185858031201918 3.483112988851283 -1.188569587805661
-0.169128879826923 3.482842342664698 -1.188845264101731
-0.152399950289156 3.482571932877496 -1.189120942224909
-0.135670815293586 3.482301416410432 -1.189396690833235
-0.118941680131629 3.482031104367704 -1.189672423441108
-0.102272039305936 3.483784001968461 -1.190639626773191
-0.085483505049643 3.481490102529868 -1.190223852554665
-0.068754368781324 3.481219999886087 -1.190499646248121
-0.052025331945692 3.480949492221848 -1.190775260181462
-0.035296395392368 3.480679109457485 -1.191051122997019
-0.018567250516661 3.480408391979880 -1.191326625037094
-0.001838214726335 3.480137871103089 -1.191602376729569
0.014890925094552 3.479867770045292 -1.191878164999259
0.031601689449412 3.477575247913146 -1.191461089860765
0.048320902454630 3.477304630626451 -1.191736499190101
0.065040223183600 3.477034515309642 -1.192012185073960
0.081759641038595 3.476764185955354 -1.192287643320687
0.098479071857821 3.476494329731227 -1.192563366163959
0.115198470306991 3.476223323009060 -1.192838714254002
0.131994485468457 3.477973956985764 -1.193807910184854
0.148723539812037 3.477703955763423 -1.194083725706637
0.165452581950213 3.477433537064506 -1.194359476847494
0.182075764079332 3.475142750455312 -1.193940976780951
0.198910637858991 3.476892285218399 -1.194910778808864
0.215514598074301 3.474601884051951 -1.194492098144197
0.232233882672478 3.474331471312818 -1.194767528105697
0.248953414422087 3.474061180208533 -1.195043119383112
0.265672529284011 3.473790906913916 -1.195318727637095
0.282391856608454 3.473520521741012 -1.195594239850304
0.298937471013535 3.471230864700722 -1.195174441093136
0.315830702772538 3.472980054086571 -1.196145302638726
0.332356649248556 3.470690353687403 -1.195725155110178
0.349066261902857 3.470420730313116 -1.196000664928427
0.365776077064231 3.470150338196757 -1.196275959627436
0.382262961370494 3.467861876928244 -1.195855366039782
0.398963023760340 3.467591631346539 -1.196130501094993
0.415662892097602 3.467321511383791 -1.196405706890068
0.432111286183706 3.465033567752804 -1.195984397408591
0.448801257258650 3.464763606797294 -1.196259432940035
0.465491448266114 3.464493893454846 -1.196534531096664
0.481900947140959 3.462206247789327 -1.196112457105472
0.498581388416673 3.461936797474727 -1.196387518520830
0.515262010670032 3.461666969747540 -1.196662250269042
0.531632409287034 3.459379872755726 -1.196239540550202
0.548303223794735 3.459110741157319 -1.196514501078820
0.564973863925892 3.458841250211005 -1.196789189352435
0.581305431068799 3.456554757961696 -1.196365845596997
0.597966465910022 3.456285791456856 -1.196640507227538
0.614627644261090 3.456016425071978 -1.196915150403745
0.630920297302040 3.453730623854453 -1.196491058157419
0.647571375956869 3.453461530069936 -1.196765601539519
0.664222807517843 3.453191907929462 -1.197039933044957
0.681271662654543 3.454938707778104 -1.198013399989144
0.697525668087885 3.452654038656398 -1.197588867196866
0.714176826163154 3.452384531384859 -1.197863234567111
0.730828217418919 3.452115821455954 -1.198137793663707
0.747479213331968 3.451846233402950 -1.198412099845941
0.763684637342219 3.449562106144914 -1.197986944874732
0.780326216952861 3.449293397236560 -1.198261255300052
0.796502438282074 3.447009226215489 -1.197835245403964
0.813134257128026 3.446740489701040 -1.198109397068950
0.829765893698176 3.446471620177224 -1.198383424387712
0.845903257827948 3.444188542617979 -1.197957020248460
0.862525399828814 3.443920114966486 -1.198231031828459
0.879147659159907 3.443651009782574 -1.198504882994566
0.895245904341693 3.441368616512068 -1.198077771403072
0.911325090121433 3.439086967132393 -1.197650576146740
0.927927510051479 3.438818448278599 -1.197924062710804
0.943977204515602 3.436537001178204 -1.197496269873934
0.960570333843676 3.436268596921466 -1.197769645596805
0.977163191048612 3.436000030792964 -1.198043029403434
0.993756359487092 3.435732056413920 -1.198316535598948
1.009757233625902 3.433450990798386 -1.197887811955590
1.026340739644085 3.433183168764947 -1.198161127981963
1.042923985865295 3.432914675197137 -1.198434387028013
1.058885851612763 3.430634348722783 -1.198004892578947
1.075459513821142 3.430366468076745 -1.198278109114953
1.091392656333428 3.428086910676415 -1.197848373741960
1.107956725426578 3.427819213183626 -1.198121412629594
1.123860314420767 3.425539928343157 -1.197691054248233
1.140414357140659 3.425272177121636 -1.197963824719055
1.156968477203309 3.425004168923767 -1.198236494269055
1.172144514323229 3.420714962863344 -1.197102083222690
1.188679233197636 3.420447546237902 -1.197374511373226
1.205213800342553 3.420180185582593 -1.197647050658392
1.220311807460863 3.415891795868156 -1.196510913571565
1.236099343145918 3.413614534661317 -1.196078737289574
1.252604779926814 3.413347659108207 -1.196350721052860
1.268362971417135 3.411070705315300 -1.195918085294642
1.284858700741419 3.410804074449859 -1.196189873390960
1.301354237486357 3.410537198404172 -1.196461755231386
1.317073643752241 3.408260942778577 -1.196028387833517
1.333559682349927 3.407994271343998 -1.196300052796088
1.350045888695822 3.407727994516387 -1.196571805202041
1.365726165033502 3.405452375850440 -1.196137788063814
1.381387142866207 3.403177025783494 -1.195703448289365
1.397853747850031 3.402911009851383 -1.195975050212218
1.414320488159760 3.402644658124157 -1.196246389908398
1.429097649998943 3.398361349739131 -1.195104986222748
1.445544645497645 3.398095598746636 -1.195376080619653
1.461992077976418 3.397829581074422 -1.195647141150100
1.480186694173923 3.401579690077113 -1.197331751425027
1.494886040801712 3.397297659055930 -1.196189151342716
1.505080936898838 3.382977998034808 -1.191510442543878
1.514236318101946 3.366652587210637 -1.186121927400182
1.513197367456889 3.328248983800722 -1.172949181419089
1.512711137151390 3.291858156084143 -1.160477729197563
1.513739306831454 3.259487473769098 -1.149416395605915
1.518223298178569 3.235149060717306 -1.141181288557188
1.531989635270598 3.230881905970281 -1.140023241873251
1.520724572527218 3.174444585698566 -1.120450387639429
-0.670733141201146 1.526068879434822 -0.514805925873571
-0.639536286439072 1.470943659367002 -0.496363820983630
-0.639088457553101 1.486108781911190 -0.501636807768074
-0.627232506478818 1.474790723802828 -0.497970775790029
-0.612913435166564 1.457363624777007 -0.492238997200832
-0.597912803409534 1.437902589258603 -0.485816383511943
-0.583934163853720 1.420481200960120 -0.480079161748890
-0.572189226176936 1.408153294852196 -0.476060202952655
-0.560152145960824 1.394809253959338 -0.471694989311630
-0.542989293019431 1.368232714062006 -0.462850820945272
-0.527276634217719 1.344714227337393 -0.455035794468756
-0.516124804915231 1.332396028545660 -0.451007082052339
-0.505089464661504 1.320079583799242 -0.446976473652586
-0.496478366555201 1.313871406259964 -0.445012162627967
-0.487925369556322 1.307664053626637 -0.443046815767960
-0.479056084110613 1.300440316582399 -0.440735798466323
-0.470624691494225 1.294234919219191 -0.438768380189327
-0.464077283566397 1.293117601053970 -0.438525291903266
-0.457899885462599 1.293017740962928 -0.438627109065371
-0.452788676449391 1.295969589219442 -0.439764489623332
-0.449050529000534 1.302989608933608 -0.442283377240437
-0.445935735436730 1.312042773957090 -0.445494067945791
-0.443074210940178 1.322111534169693 -0.449051662553479
-0.443811145753820 1.343364965163675 -0.456411391655927
-0.453614856471127 1.393086698954573 -0.473450770133854
-0.460658611575402 1.435683683595260 -0.488078490698870
-0.461830493056596 1.460990028532372 -0.496835225597491
-0.459594188964584 1.476126331278309 -0.502137617162430
-0.457523717914629 1.492276863665329 -0.507788438693144
-0.453456793235767 1.502326120275712 -0.511365909809627
-0.449594798325723 1.513390315671641 -0.515291028733183
-0.446516961020382 1.527501351980937 -0.520256286580659
-0.578018188425346 2.010089309336092 -0.684833735486672
-0.544840751165692 1.926609945759194 -0.656595123718132
-0.740157620856370 2.662092459942740 -0.907530060299301
-0.898451737076341 3.287734961593453 -1.121162868170454
-0.895817495586599 3.336244295780205 -1.138056209360314
-0.895395858324356 3.394904577338818 -1.158423660074068
-0.886518334274531 3.423082838441952 -1.168398945573895
-0.890279131342686 3.502040746584475 -1.195718285319555
-0.882641062742046 3.538331009625233 -1.208481704458097
