ply
format ascii 1.0
element vertex 867
property double x
property double y
property double z
end_header
1.527822827099172 0.223526419331918 -2.59570297702092
1.528972626783514 0.210762955332378 -2.597656314524954
1.528972485175473 0.197831093240154 -2.597656193952389
1.528972612281265 0.184899368345111 -2.597656393267727
1.528972453998279 0.17196750324171 -2.59765611439704
1.528972592632982 0.159035685852715 -2.597656329220058
1.530122085323754 0.146213854580641 -2.599609306241973
1.53012219922573 0.13327230335122 -2.599609420758497
1.53012221712288 0.120330757815097 -2.599609433033265
1.530122230971344 0.10738927404134 -2.599609445100569
1.530122327049725 0.09444773016261 -2.59960965769352
1.530122290586974 0.081506172013762 -2.599609777471585
1.530122260604259 0.068564685933998 -2.599609429493484
1.53012189841354 0.055623280783404 -2.599609080729351
1.528972532427744 0.042649665311349 -2.597656434931039
1.528972505319956 0.029717906448384 -2.597656183593358
1.528972621081437 0.016786074630737 -2.597656361323232
1.528972584693065 0.003854242573692 -2.597656412790457
1.528972519573813 -0.009077435225252 -2.597656188353099
1.528972604758053 -0.022009190542159 -2.597656405595131
1.528972356237801 -0.034941017899045 -2.597656134045096
1.528972606803734 -0.047872858581184 -2.597656286228698
1.527822801486195 -0.060758964848947 -2.595702928084961
1.527822928293432 -0.073681004781939 -2.595703134503481
1.527822935028453 -0.086603026495655 -2.595702963976677
1.527823044299467 -0.099525067620339 -2.595703153886632
1.526673369792064 -0.112362488515982 -2.593750044601606
1.526673325116519 -0.125274794706538 -2.593749986284621
1.526673386761743 -0.138187274441976 -2.59375034890472
1.527822985782763 -0.151213339734155 -2.595703012472242
1.526673220257919 -0.164012017013668 -2.593749937553014
1.52667309968875 -0.176924169853446 -2.593749759571949
1.526673359939878 -0.189836499138464 -2.593750092216354
1.526673297831366 -0.202748933415569 -2.593749937917167
1.526673287986313 -0.215661266500742 -2.593749987333894
1.526673219546936 -0.228573574383265 -2.593749926482033
1.526673220271732 -0.241485871082963 -2.593750026588935
1.52667335564837 -0.254398368497554 -2.593750218932428
1.526673146515691 -0.267310474297361 -2.593749635075596
1.526673372903758 -0.280222957256136 -2.593749997152884
1.526673130164653 -0.293135258312279 -2.593749731644664
1.52552385727688 -0.305817297967593 -2.591797215115662
1.525523820910166 -0.31871973458702 -2.59179717210975
1.525523789354111 -0.331622320766467 -2.591796928696795
1.525523687759289 -0.344525036200549 -2.591796826906645
1.525523559095745 -0.357427619569307 -2.591796759601493
1.52437402160578 -0.370051257201197 -2.589843545423676
1.524374026196114 -0.382944169915667 -2.589843667322413
1.524374078303666 -0.395837004458858 -2.589843571708073
1.52437415145188 -0.408729874279015 -2.589843629060894
1.524374033737132 -0.421622758780082 -2.589843732409719
1.524374116184674 -0.434515595357439 -2.589843678782302
1.524374123129206 -0.447408606173312 -2.589843849893612
1.524374018599559 -0.460301475551006 -2.589843696211886
1.52437418492525 -0.473194225246907 -2.589843976217594
1.524374099864758 -0.486087216170656 -2.589843747969283
1.525523643038795 -0.499356369829229 -2.59179689658886
1.525523675659315 -0.512259175887269 -2.591796979171846
1.52552360550078 -0.525161634122185 -2.59179666097333
1.526673205706786 -0.538469680692266 -2.593749901257425
1.525523580447796 -0.550966715380312 -2.591796715631176
1.525523705736873 -0.56386951937645 -2.591797025411381
1.526673283149705 -0.57720664447249 -2.593749986262537
1.526673448669129 -0.590119192612256 -2.593750140048598
1.525523613548124 -0.602577388036181 -2.591796879936297
1.525523718451694 -0.615479826986679 -2.591796981392321
1.525523607894741 -0.628382544116818 -2.591796847359149
1.52667337796008 -0.641768414843455 -2.593750055853064
1.526673301723868 -0.654680824119378 -2.593749967765078
1.525523679695254 -0.66709048328326 -2.59179686515688
1.525523636521683 -0.679993173430972 -2.591796674726879
1.525523541039433 -0.692895588350488 -2.591796730188008
1.52552356125706 -0.705798157438974 -2.591796636847192
1.525523561255234 -0.718700885913766 -2.591796715708796
1.525523721300459 -0.731603568632266 -2.591796886798534
1.525523626330127 -0.744506286351445 -2.591796730357231
1.525523782264358 -0.757408744942406 -2.591797116154808
1.525523628468264 -0.770311450417768 -2.59179685130421
1.525523509188083 -0.783213967164713 -2.591796631810084
1.52552357810913 -0.796116492350222 -2.591796728684187
1.526673292289644 -0.809628875401373 -2.593749934442712
1.526673273559531 -0.822541117314586 -2.593750005485859
1.52667326648632 -0.835453565202457 -2.593749991097866
1.526673285577424 -0.848365761310575 -2.593749999742869
1.526673251843533 -0.861278076373083 -2.593749953321662
1.525523619055491 -0.873532288728995 -2.591796749726427
1.525523689776804 -0.886434895576656 -2.591796829748205
1.524374048751795 -0.898659895892159 -2.589843645470481
1.524374160979221 -0.911552635935834 -2.589843839370559
1.523224495473109 -0.923748300553477 -2.587890582483126
1.52322432402417 -0.936631484246163 -2.58789050727529
1.523224568954383 -0.949514803259561 -2.587890857981748
1.522074862736304 -0.961671587856955 -2.585937285245336
1.52207491111767 -0.974545089817013 -2.58593759178143
1.52207493940405 -0.987418337758683 -2.585937535289872
1.522074813234084 -1.000291854989555 -2.585937234918006
1.52207490127676 -1.013165275308481 -2.585937355629397
1.522074784907829 -1.026038828083621 -2.585937261633859
1.522074948401368 -1.038912301242561 -2.585937436323889
1.522074797990207 -1.05178588354552 -2.585937410126434
1.522074954736247 -1.064659119936891 -2.585937490616715
1.522074863384319 -1.077532719236892 -2.585937407077708
1.522074917764712 -1.090406148481179 -2.585937459284651
1.520925344812042 -1.102446119824734 -2.583984614516055
1.520925199762793 -1.115309940616953 -2.583984351626455
1.51977560121162 -1.127320759268088 -2.582030954077283
1.519775671176561 -1.140174686034584 -2.582031128893192
1.518625957038012 -1.152156557741812 -2.580077855902417
1.518625993542784 -1.165000907985203 -2.580078086235545
1.518625976935482 -1.177845233702897 -2.580077808705255
1.518626038858386 -1.190689498117571 -2.580078100015967
1.517476489559897 -1.20262298452154 -2.578125200107877
1.516326898876201 -1.214536466524123 -2.576171878958462
1.515177175115582 -1.226430780796676 -2.574218720894351
1.517476461584387 -1.241126376804338 -2.578124936570461
0.63240641013207 0.500154606262882 -1.065429568484646
0.600525258901285 0.469904051880476 -1.011718720106387
0.643419967818346 0.498072267696372 -1.083984309039778
0.711819510717348 0.545050493915433 -1.199218725907016
0.68341632596427 0.517569897203906 -1.151367211187335
0.802246162495887 0.600834593012564 -1.351562510090986
0.802825832208782 0.594535488185556 -1.352539125615067
0.835866250136672 0.611993253547261 -1.40820305475966
0.827751050564984 0.599109276890886 -1.394531217647454
0.836445939664721 0.598387169819084 -1.409179738497713
0.847459369417194 0.599158500884691 -1.427734347067684
0.853256005090991 0.596100513821529 -1.437500068386925
0.840503475938 0.580142132687726 -1.416015594213221
0.835866301090391 0.569930982162308 -1.408203129390273
0.828330682587488 0.557845619856909 -1.395507725911138
0.824852721766341 0.548585412825915 -1.389648398659773
0.823693451513542 0.540906116081857 -1.387695250803603
0.823113775017532 0.533622005428811 -1.386718797643425
0.824273079255811 0.527460446890657 -1.388671762367579
0.82485273128043 0.520913290286487 -1.389648365149476
0.827171409169267 0.515440126654685 -1.393554584506838
0.83064935951576 0.510640745344446 -1.399414053930315
0.834127294545024 0.505783003145233 -1.405273428183456
0.838184888324054 0.501213548512517 -1.412109312968354
0.843981506073646 0.497601340225486 -1.421874938480869
0.849778001627016 0.493891807964474 -1.43164058621079
0.85499490467868 0.489753095423577 -1.440429580310706
0.861371248301424 0.486181225646551 -1.451171915732949
0.868327088054663 0.482824667735851 -1.462890624623071
0.874703327377681 0.479033928641215 -1.473632739862367
0.881079488697878 0.475136328740746 -1.484374970204101
0.888615140921456 0.471747219950679 -1.497070335726868
0.895570985291343 0.467928822781374 -1.508789049664841
0.900787948470203 0.463099698002189 -1.517578145682187
0.910642075864693 0.460528258700386 -1.534179677074398
0.939045389025232 0.467016589241869 -1.582031404275511
1.407408649475883 0.688144342378848 -2.371093594458785
1.518702925034617 0.729823714238339 -2.558593583505669
1.552323219826263 0.732960782241541 -2.615234585241481
1.546526629042489 0.717253249306467 -2.605468970311051
1.540729990488678 0.70164273645748 -2.595703218023147
1.544207938563922 0.690275443662873 -2.601562460076536
1.545367282201809 0.677832717370592 -2.603515663483051
1.541889274669025 0.663375346256348 -2.597656139518406
1.541889295108675 0.650443574857206 -2.597656392917742
1.543048538418873 0.637991095121428 -2.599609210808296
1.543048543019232 0.625049626574281 -2.599609306466633
1.544207793105699 0.612567906044625 -2.60156228612172
1.545367338465127 0.600067011347871 -2.603515794808757
1.54652648127751 0.587546407100348 -2.605468637852937
1.547685772062906 0.575006429489118 -2.607421858717728
1.547685911844383 0.562026120510836 -2.607421875993168
1.551163614792358 0.55027943433987 -2.613281014047971
1.554641677944346 0.538474559353119 -2.619140713902084
1.558119669146151 0.526611258249289 -2.624999946236073
1.559278954178012 0.513925420048736 -2.626953076205368
1.556960516420389 0.500103095992277 -2.623047171026286
1.54304865839697 0.482693007001636 -2.59960953867234
1.526818076099829 0.46481044428128 -2.572265292880431
1.5221807145589 0.450632162543918 -2.564452871777348
1.524499548777669 0.438532803619029 -2.568359328191505
1.525658844333464 0.426070560030425 -2.570312447832805
1.529136857033834 0.414217014083171 -2.576171948227454
1.529136840685624 0.401392187135102 -2.576172041411496
1.529136868639966 0.388567377708213 -2.576171900264512
1.530295976056308 0.376027334345634 -2.57812478482677
1.531455480254351 0.363468026235747 -2.580078265868835
1.531455278260381 0.350623622646001 -2.580077844195955
1.530296059428622 0.337523712543991 -2.578124918063509
1.531455264804293 0.324935163742088 -2.580078078554777
1.530296151118478 0.311854593548517 -2.578125091703214
1.530296088675129 0.299020141090239 -2.578125035638948
1.530296029341258 0.286185574341369 -2.578124932435273
1.530296220129799 0.273350968396521 -2.578125075437853
1.530296129249891 0.260516438542529 -2.578125060209217
1.530296177806562 0.247681849493542 -2.578125170980968
1.529136704832865 0.23466932117959 -2.576171945710627
1.529136957785653 0.221844520362072 -2.576172070516051
1.529136823824828 0.209019801318906 -2.576172104302401
1.530296046078433 0.196343654961055 -2.578124931632942
1.530296073842237 0.183509126972837 -2.578124794827886
1.530296079879179 0.170674532232017 -2.578125003128207
1.530296106284226 0.15783993831489 -2.578124911384663
1.530296127916642 0.145005477455214 -2.578124891692795
1.530296187524229 0.132170893651359 -2.578125260973621
1.531455450145273 0.119426691807178 -2.580078232077597
1.531455382117684 0.10658243329253 -2.580077962933601
1.531455478351404 0.093738134087662 -2.580078352043444
1.530295955600764 0.080832554188113 -2.578124836207166
1.530295910827135 0.067998031422789 -2.57812486565831
1.530296056813384 0.055163588162805 -2.578125004993595
1.530296107923903 0.04232898707854 -2.578124895418227
1.530296075859411 0.029494463085777 -2.578124914069832
1.530295912231608 0.016659862435504 -2.57812474434661
1.530296215702691 0.003825263395901 -2.578125084090814
1.530296095221985 -0.009009184165099 -2.57812486523359
1.530296029264662 -0.021843705606813 -2.57812482785215
1.530296014115379 -0.034678309737066 -2.578124965697157
1.530296100009679 -0.04751290957046 -2.578125241046052
1.529136827582704 -0.060301791783004 -2.576171872301245
1.529136892936449 -0.073126594835055 -2.576171991189639
1.52913680613878 -0.085951399679346 -2.576171887013487
1.52913684071666 -0.098776186728504 -2.576171832264038
1.527977550522152 -0.111516397616551 -2.574218904687527
1.527977539486926 -0.124331470523301 -2.574218829990045
1.527977416987312 -0.137146698151902 -2.574218713376411
1.52913689964862 -0.150075558226104 -2.576172111554698
1.527977546086703 -0.162777005323003 -2.574218701569322
1.527977547723609 -0.175591943577333 -2.574219043663916
1.527977473879645 -0.188406986464482 -2.574218567248039
1.527977460187003 -0.201222231535382 -2.5742186296402
1.527977518078174 -0.214037321569398 -2.574218770213861
1.527977419820246 -0.226852380640445 -2.574218548850922
1.527977413775318 -0.239667460400227 -2.574218798311676
1.527977560663146 -0.252482710933267 -2.574218838814929
1.527977508334004 -0.265297617462675 -2.574218623674241
1.527977549032954 -0.278112858899423 -2.574218692113007
1.527977503741226 -0.290927916249526 -2.57421862964155
1.526818270673118 -0.303512695122903 -2.57226578398253
1.526818288979243 -0.316317937361092 -2.572265780699624
1.526818215066513 -0.329123291560444 -2.572265871914254
1.526818028785883 -0.341928773939944 -2.572265475948967
1.526818195911801 -0.354734129499672 -2.572265613225397
1.526818095032795 -0.367539610524826 -2.572265539372751
1.525658946189765 -0.380056206037786 -2.570312605739971
1.525658869147833 -0.392851850742247 -2.570312684174013
1.525659069278191 -0.405647493073062 -2.570312675211341
1.525658678985593 -0.418443076303134 -2.570312271823042
1.525658744664753 -0.431238700657932 -2.57031237518504
1.525658812624187 -0.444034493934566 -2.570312467140212
1.525658786036729 -0.456830084720877 -2.570312384532372
1.526818144747182 -0.469982455900428 -2.57226551982896
1.526818120418852 -0.482787948894956 -2.572265514414937
1.526818278745111 -0.495593399401777 -2.572265848667058
1.526818032144604 -0.508398826545871 -2.572265599556829
1.526818298645622 -0.521204200414633 -2.57226580843458
1.527977312169909 -0.534414986282957 -2.574218521815183
1.527977518000284 -0.547229944529548 -2.574218739227831
1.527977581129619 -0.56004523325489 -2.574218976991816
1.527977567057405 -0.57286028784948 -2.574218858335996
1.527977357542142 -0.585675446287905 -2.57421854714417
1.527977497065379 -0.598490543699459 -2.57421876922993
1.526818194944894 -0.610841684657828 -2.572265598520858
1.52681825124661 -0.623647190106702 -2.572265838832692
1.527977454413183 -0.636935779941449 -2.574218769784437
1.526818221132459 -0.649258037025906 -2.572265741415976
1.527977532497246 -0.662566144643939 -2.574218993819642
1.527977347413582 -0.675381248437091 -2.57421868356181
1.527977395277844 -0.688196200804754 -2.574218594264948
1.527977515778844 -0.701011369127038 -2.57421885076478
1.52797736372527 -0.713826517144597 -2.574218659796713
1.527977470953374 -0.726641648988334 -2.574218723837475
1.527977462972245 -0.739456871097232 -2.574218779021322
1.52797754201876 -0.752271830025549 -2.574218943670076
1.527977475930449 -0.765087003673937 -2.574218613347469
1.527977465333727 -0.777902161194923 -2.574218823650185
1.527977526614706 -0.790717061793906 -2.574218768115571
1.527977356604282 -0.803532178694155 -2.574218586373433
1.527977523253277 -0.816347350908394 -2.574218758720932
1.52797743630898 -0.829162650717215 -2.574218816305887
1.527977436667179 -0.841977466398113 -2.574218709942869
1.527977493284212 -0.854792665700401 -2.574218757413433
1.527977545546477 -0.867607764320155 -2.574218846734766
1.52681825878112 -0.879754933783943 -2.572265791003616
1.526818131641498 -0.89256033975979 -2.572265706186641
1.525658975692039 -0.904678201695539 -2.570312763421967
1.525658995707161 -0.917473879578296 -2.570312877889364
1.525658850459493 -0.930269540470363 -2.570312527427319
1.52565889986753 -0.94306523983893 -2.57031259288172
1.524499617732772 -0.955134643486971 -2.568359436659279
1.524499517970227 -0.967920486743616 -2.568359230135798
1.52449949762341 -0.980706218539716 -2.568359235654157
1.524499710959027 -0.993492439788056 -2.56835954520804
1.524499462081678 -1.006278259270005 -2.568359154479197
1.524499490934261 -1.019064334496875 -2.568359289992827
1.524499548768652 -1.031850245986774 -2.56835931486998
1.524499437978037 -1.044636163294982 -2.568359143623795
1.524499474388108 -1.05742193214553 -2.568359268684617
1.524499616687933 -1.070208134052244 -2.568359431545133
1.524499438829565 -1.082993903098242 -2.568359162925731
1.523340191367467 -1.094946445466562 -2.566406091656177
1.523340264511845 -1.107722881326033 -2.566406282186193
1.522180958169471 -1.11964635176659 -2.564453237674201
1.52218093189223 -1.132412504011008 -2.564453126902009
1.521021681516729 -1.144307095364965 -2.562500222552018
1.522180861112588 -1.157945629162782 -2.564453057911123
1.522180868269189 -1.170712179767939 -2.564453146805178
1.52102164618146 -1.18257741944214 -2.562500132270927
1.521021644432139 -1.195334364114871 -2.562499959202995
1.51986231865348 -1.207170034404214 -2.560547026155973
1.517543647308983 -1.218056073519982 -2.5566405311708
1.522180895364507 -1.234544688251873 -2.564453011105385
0.633028390758739 0.496487163665904 -1.057617150962642
0.609063311013589 0.472625511178997 -1.017578110209527
0.654070905990345 0.502110672681351 -1.092773450014427
0.687972723694699 0.522413999600531 -1.149414069755238
0.771558167416543 0.579467600278846 -1.289062481940078
0.747593105521503 0.55525105997134 -1.249023472296926
0.813643258855379 0.597540360415394 -1.359375168232901
0.827086973272657 0.600534289562972 -1.381835884560559
0.839946213054578 0.602885133635368 -1.40332024038981
0.845206988301186 0.599631272535532 -1.412109434357873
0.853974640872778 0.598748793446219 -1.426757940935659
0.860404285087334 0.596100546652075 -1.437500032101866
0.847544974453278 0.580142172826168 -1.416015614752268
0.843453313919618 0.570326161627442 -1.409179595934134
0.837023666625143 0.559016767002859 -1.398437426411249
0.830009511000256 0.547428902849756 -1.386718690187649
0.829425010784561 0.540144773802737 -1.385742118397388
0.830009544460673 0.533622040478509 -1.386718788612569
0.830594005439025 0.52708953514184 -1.387695292103217
0.831763074610791 0.520913310065591 -1.38964838599864
0.83410112317317 0.515440127908064 -1.393554683351937
0.837608250774622 0.510640741991324 -1.399414096360232
0.841115362501476 0.505783056536753 -1.405273541750915
0.84462238168852 0.500866972342315 -1.411132891963263
0.85046743913454 0.497259505165598 -1.420898370753086
0.856312687877619 0.493554911464827 -1.43066409121127
0.862157808769911 0.489753072463674 -1.440429624308614
0.869172014234543 0.486508437164112 -1.452148474663588
0.875601565122913 0.482824623932554 -1.462890556648773
0.882615842828116 0.479351417586571 -1.474609426875162
0.889045433931891 0.475448892427778 -1.485351600202748
0.896059577238283 0.471747233446038 -1.497070306743453
0.903658320438367 0.468231738785079 -1.509765768506455
0.909503393324087 0.463695747767474 -1.519531324199903
0.918855585666783 0.460821376700078 -1.535156240209616
0.944574247955721 0.465863438432272 -1.578124968080658
1.183055846119629 0.573642618593439 -1.976562513508696
1.371269202429204 0.65349865120794 -2.291015502824578
1.554806627222206 0.728034297311979 -2.597656438035301
1.548961520559573 0.712414214362553 -2.58789065813184
1.54194715230517 0.696363230073302 -2.576171579252943
1.54662351691141 0.685611369679307 -2.583984420168008
1.54779242393829 0.673256203344899 -2.585937537881762
1.543116301358509 0.658387562801366 -2.578124814138931
1.543116383998466 0.645552978507489 -2.578125026761668
1.543116383184042 0.632718491901532 -2.57812507291284
1.544285412080797 0.620353575580751 -2.580078220754245
1.544285520382175 0.607509346537775 -2.580078457768025
1.545454359646314 0.595115167550262 -2.582031116814207
1.546623489323267 0.582701563282932 -2.583984419248253
1.547792365545831 0.570268548826604 -2.585937518819037
1.548961649925701 0.557816173396258 -2.587890789613922
1.551299533714683 0.545755537492393 -2.591796692813887
1.554806557142442 0.53405748736348 -2.597656191692565
1.558313710299444 0.522301209720297 -2.603515581112106
1.559482713205938 0.509722336693144 -2.605468664242522
1.554806543630392 0.495262164810413 -2.597656289502282
1.540778301386311 0.477978493358489 -2.574218715577587
1.529088159416332 0.461634166841588 -2.554687812564026
1.526750002225199 0.448229757898737 -2.55078137961533
1.529087857862805 0.436198373903945 -2.554687268836361
1.529087924510577 0.423480443894402 -2.554687455149391
1.532594946590962 0.411704663605878 -2.560546729732863
1.533764071235964 0.399262007742998 -2.562499942913178
1.532594855157413 0.386210638546629 -2.560546774317118
1.533764039892333 0.373748397537961 -2.562499820833068
1.533764181720883 0.360991703194133 -2.562500182396192
1.532594948919694 0.347969436450111 -2.560546886671133
1.532595069813425 0.335222427737492 -2.560547009608882
1.533764010369325 0.322721387596831 -2.562499899342356
1.533764039775818 0.309964559406541 -2.562499847411388
1.532595244289041 0.296981422934763 -2.560547176915691
1.532595107594432 0.284234286842448 -2.56054700642602
1.532594918754469 0.271487191789493 -2.560546798720623
1.532595221184465 0.258740211946389 -2.560547043607357
1.53259506168726 0.245993085599505 -2.560546747490775
1.531426301282991 0.233068103151766 -2.558594089103053
1.53142598215527 0.220330782231002 -2.558593747721488
1.531426113489331 0.207593569016495 -2.558593615487936
1.531426144937541 0.194856219555056 -2.558593724785339
1.531426068037717 0.182118907060643 -2.558593824429323
1.531426161226676 0.169381549057206 -2.55859378463694
1.531425998450544 0.156644169673129 -2.55859354937877
1.531426152510988 0.143906971582473 -2.558593717439663
1.531426058550664 0.131169578837735 -2.558593761733277
1.532594921113287 0.118522614687436 -2.560546747211447
1.532595036256907 0.105775609636574 -2.560546890975388
1.531426124350247 0.092957565267944 -2.558593786752468
1.532594894745046 0.080281427135846 -2.560546661075918
1.532594916141008 0.067534406770495 -2.560546869099056
1.532595008844879 0.054787469372024 -2.56054671661559
1.531425944587511 0.042008313091191 -2.558593632730378
1.531426216501757 0.029271024475721 -2.55859394655306
1.53142601552311 0.016533652239433 -2.558593762774279
1.531426125262229 0.003796284038065 -2.558593855203981
1.531426070243626 -0.008940932691392 -2.558593845617153
1.531426027585582 -0.021678224503409 -2.558593732982857
1.531425938308502 -0.034415594285856 -2.558593715717393
1.531426028719295 -0.047152963483416 -2.558593755736851
1.530256810401994 -0.059844608036856 -2.556640374121827
1.530257038414788 -0.072572192200791 -2.556640810620593
1.530256895902085 -0.085299748274284 -2.556640565098775
1.530257129896555 -0.09802732433238 -2.556640822783208
1.529087910965444 -0.110670281093766 -2.554687359408376
1.529087959134188 -0.123388129261635 -2.5546875922835
1.529088097284159 -0.136106144241399 -2.554687555108615
1.529088172129889 -0.148823983403812 -2.554687702275515
1.529087849737664 -0.161541953792909 -2.554687239807066
1.529088048645662 -0.174259665721994 -2.554687580971375
1.529087829133175 -0.186977494388513 -2.554687157869893
1.529088048520521 -0.199695497101764 -2.554687400630485
1.52908788316887 -0.212413345331315 -2.554687469024969
1.529087996086332 -0.225131203272269 -2.554687637775089
1.529088158072526 -0.237849055225537 -2.554687643015498
1.529088136750147 -0.250567061376607 -2.554687749971322
1.529087987059839 -0.263284736563342 -2.554687455568427
1.52908801506419 -0.276002741593162 -2.554687627394074
1.529087970385206 -0.288720584469432 -2.554687549453703
1.529087909537594 -0.301438567354065 -2.554687316013087
1.527919007429304 -0.313916101619142 -2.552734436073123
1.527919043045017 -0.326624227074106 -2.552734461348223
1.527918927369441 -0.339332469103297 -2.552734164029658
1.527918819400028 -0.352040620966285 -2.552734284376811
1.526749943360883 -0.364469797285993 -2.550781164385896
1.52675003265324 -0.377168217341374 -2.550781350560356
1.525580706132843 -0.389568025341998 -2.548827930593504
1.526749893864874 -0.402564995800844 -2.550781155285321
1.526750141660671 -0.41526345170044 -2.550781326674723
1.526749901329723 -0.427961825678231 -2.55078120606413
1.5267500375586 -0.440660397933517 -2.550781221088982
1.527918978848902 -0.453705927632363 -2.55273451155233
1.52791888642173 -0.466413884776216 -2.552734351857112
1.527918851261916 -0.479122179875848 -2.55273444978765
1.527918770840444 -0.491830286523378 -2.552734274907124
1.527918719873469 -0.50453848205791 -2.552734190724095
1.527918950963368 -0.517246680336299 -2.552734377909871
1.529087890925922 -0.530360246875581 -2.554687438550445
1.529088026377849 -0.543077983455934 -2.554687665348354
1.529087969150055 -0.555795963842243 -2.554687369756664
1.529088084792264 -0.568513810588374 -2.554687580668499
1.529088075661548 -0.581231857164852 -2.554687560963885
1.529088063878135 -0.593949662915634 -2.554687452829967
1.529087928451617 -0.606667322921812 -2.554687416135479
1.529087969880152 -0.619385377632824 -2.554687407635186
1.529088183822523 -0.63210328058193 -2.554687782232122
1.52908808447819 -0.644821188117817 -2.554687546954938
1.529088026700123 -0.657539083396099 -2.554687595858653
1.529088062534598 -0.670257077607928 -2.554687712567613
1.529088185773389 -0.682974806450702 -2.554687642229169
1.529088081922282 -0.695692592703807 -2.554687527439171
1.529088044109074 -0.708410563140063 -2.554687491824779
1.530256923916994 -0.721679738154826 -2.556640549019278
1.530256894788181 -0.734407411569919 -2.556640403032361
1.529087887233388 -0.746564063820852 -2.554687363325371
1.53025686654621 -0.759862530436806 -2.556640456425157
1.530257082861098 -0.772590251754963 -2.556640891032686
1.530256980026522 -0.78531763833945 -2.5566406659173
1.53025696508179 -0.798045283233833 -2.556640458491529
1.530256998887154 -0.810772898461089 -2.556640538513264
1.529087895184489 -0.822871403906689 -2.554687241246256
1.530257105611227 -0.836228110660535 -2.556640831205925
1.530256991643469 -0.848955549529563 -2.556640514474324
1.530257078261926 -0.86168329957615 -2.556640613638734
1.529088011251929 -0.87374283337212 -2.554687519104419
1.529088177064779 -0.886461040515371 -2.554687755999851
1.527919075576847 -0.898491172537206 -2.552734546218289
1.527918970679352 -0.911199353380212 -2.552734549938123
1.527918758476545 -0.923907422301994 -2.552734080334915
1.527918892451751 -0.936615620816212 -2.552734388232068
1.526749977821211 -0.948597646659977 -2.550781238699571
1.526749979425816 -0.961295983601673 -2.550781258229804
1.526749953732065 -0.97399426596337 -2.550781274163
1.526749840636739 -0.98669274993847 -2.55078103028427
1.52674995278511 -0.999391220049993 -2.550781202385195
1.526749832612154 -1.012089657982528 -2.550781151698402
1.526750029410373 -1.024788146315636 -2.550781355462632
1.526750036373393 -1.037486710521073 -2.550781374384513
1.525580967782105 -1.049380865427572 -2.548828287617738
1.525580867051417 -1.062069695405285 -2.548828199976867
1.52558097992906 -1.074758379237011 -2.548828283358063
1.525580869455958 -1.087446833969629 -2.548828090928055
1.525580850969902 -1.100135725869968 -2.548828116547114
1.524411898551392 -1.111971616199554 -2.546875015659253
1.524412032795226 -1.124650595556318 -2.54687513828685
1.523242699069627 -1.136457219176208 -2.544921620317382
1.523242919531867 -1.149126595383507 -2.544922040393544
1.524411724477304 -1.162687418948472 -2.546874811833604
1.523242791244428 -1.174465131719003 -2.544921792951172
1.522073958777383 -1.186223657017678 -2.542968937630405
1.520904723607714 -1.197962070858694 -2.541015498746447
1.517397758619438 -1.207820288687458 -2.535156281205502
1.51856667845334 -1.22138120694899 -2.537109211507641
0.62708949795584 0.487776920291761 -1.039062565772809
0.60705090184868 0.467182624763026 -1.005859373171205
0.664219716060238 0.505700412660381 -1.10058591375018
0.689562714676214 0.519307118016968 -1.14257822175864
0.764412659873521 0.569370812400436 -1.266601588363905
0.757929551585608 0.558289951557214 -1.255859394162606
0.819223911985777 0.596681734101217 -1.357421736320028
0.83336888348936 0.600109939094466 -1.380859286656253
0.845156282351411 0.601626564121943 -1.400390552299882
0.848103246667208 0.596728482905107 -1.405273554067122
0.855175520143092 0.594650495930935 -1.416992133173878
0.859301120468327 0.590431066387282 -1.42382807021297
0.851049928177837 0.577741450964311 -1.410156184144029
0.846335036814622 0.567559529517045 -1.402343736527399
0.841030675418253 0.557064885502534 -1.393554556565846
0.833958313534399 0.54550134605044 -1.381836069341261
0.832779584418208 0.537860940161288 -1.379882887652393
0.833368865942091 0.531367201807996 -1.380859289008384
0.834547631188254 0.525234856022355 -1.382812483242247
0.834547639282476 0.518350857527288 -1.382812530271011
0.83808380518753 0.513634110041352 -1.388671771362326
0.841620070116551 0.508859045528876 -1.394531197676926
0.845745635004697 0.504377048207274 -1.401367106607246
0.850460587679663 0.500173688895302 -1.409179644100732
0.857533021826853 0.497259521874938 -1.420898366116845
0.862837374730407 0.493218027688272 -1.429687516253601
0.869909798903326 0.49008507861025 -1.441406131054421
0.875803541550653 0.48618121642744 -1.451171887894873
0.882286616775765 0.482502359246343 -1.461914053513887
0.888180246125515 0.478399047261526 -1.471679646573712
0.895252686134569 0.474823742504356 -1.483398386433521
0.902914475065586 0.47143944700494 -1.496093645656771
0.90998690310596 0.467625942943641 -1.507812382514658
0.918827646353918 0.464589765897017 -1.522461083074404
0.927668078503608 0.461407737382709 -1.537109564622412
0.951242772232625 0.465286779338214 -1.576171697862172
1.050256940465033 0.50505491496402 -1.74023439157871
1.212922943464093 0.573273755908623 -2.009765438183905
1.552400072254883 0.720918132431255 -2.572265710580112
1.54886384913965 0.706499834198979 -2.566406425966505
1.541791431988742 0.69055583576727 -2.554687468315393
1.546506591382851 0.67991094146096 -2.562500207429267
1.547684973238944 0.667662645812648 -2.564453091181704
1.542970149531811 0.652901022998662 -2.556640581908596
1.544148946990546 0.640662429482468 -2.558593650080425
1.544149024078251 0.62792515932065 -2.558593823995366
1.545327597177973 0.615657427162656 -2.560546792803137
1.545327610335875 0.60291030708192 -2.56054670653657
1.545327658361884 0.590163357336465 -2.560546689455407
1.546506424240732 0.577856701293342 -2.562499891821517
1.546506440403661 0.565099986582052 -2.5625000207814
1.546506408894913 0.552343238416327 -2.562499895115423
1.550042474484741 0.540820266652155 -2.568359368646497
1.552399959393284 0.528837345165019 -2.572265561110797
1.554757372474285 0.516815718275573 -2.576171817083946
1.557114946832783 0.50475498298723 -2.580077976884979
1.553578919993583 0.490793680565645 -2.574218912009542
1.537076388486412 0.47290130007163 -2.546874974488858
1.528825256174855 0.457751819143979 -2.533202978028982
1.530003978089553 0.445484069420218 -2.535156108138381
1.531182726041607 0.433197063076136 -2.537109332879481
1.531182814771114 0.420566603842303 -2.53710943882831
1.534719067309084 0.40887834101872 -2.542968874808821
1.53589769093665 0.396523150013614 -2.54492185916169
1.53471903128488 0.383559309948893 -2.542968847104788
1.535897635199888 0.371184561285631 -2.544921830082899
1.537076600328291 0.35879052520664 -2.546875039470663
1.535897822634922 0.345846065632928 -2.544921960477708
1.535897561568333 0.333176801952803 -2.54492161661824
1.535897654109988 0.320507576416354 -2.544921899603935
1.535897629270906 0.307838270428853 -2.544921789751129
1.534718927428344 0.294942614567201 -2.54296857759671
1.534719144194924 0.282283063364389 -2.542968883956291
1.534719005990155 0.269623410216582 -2.542968693724106
1.534718932461175 0.256963934821474 -2.542968646349777
1.533540262366529 0.244116707705107 -2.541015508207266
1.533540302496235 0.231466856064005 -2.541015715243617
1.532361538908077 0.218648883366095 -2.539062604903151
1.532361522085992 0.206008901908561 -2.53906248463835
1.532361480253854 0.193368738468722 -2.539062530581063
1.531182847084978 0.180589691296973 -2.53710955048092
1.53118273677137 0.167959257481112 -2.537109422234778
1.531182877966231 0.155328844126692 -2.537109564239302
1.532361473089026 0.142808440991786 -2.539062560078548
1.532361383342504 0.130168281076195 -2.539062314378043
1.532361399254626 0.117528151220863 -2.539062506637435
1.532361550364897 0.104888108672101 -2.539062655043608
1.532361263239068 0.092247951494898 -2.539062218780373
1.532361638204776 0.079607826381134 -2.539062733139474
1.532361565329978 0.066967768130863 -2.539062763032746
1.533540293146487 0.054369567829871 -2.541015513807864
1.532361573758962 0.041687645173176 -2.539062800385267
1.532361504323362 0.029047580350272 -2.539062497479534
1.532361392771975 0.016407440700011 -2.539062326815866
1.532361490928338 0.003767304806983 -2.539062528871341
1.532361678024699 -0.00887268240111 -2.539062726773409
1.532361476725114 -0.021512742068434 -2.539062361849389
1.532361483292846 -0.034152878471465 -2.53906236659347
1.531182639541271 -0.046757017553801 -2.537109264866444
1.531182759140862 -0.059387434658342 -2.537109330705505
1.531182832530945 -0.072017775680647 -2.537109345184149
1.530003896331721 -0.084582945097173 -2.535156221271436
1.53000392763451 -0.097203560763241 -2.535156155953842
1.530003931343714 -0.109824183025558 -2.535156307304504
1.530004129027219 -0.122444798759844 -2.535156336000512
1.530003893479346 -0.135065540594565 -2.535155964718768
1.530004023796849 -0.147686158953912 -2.535156230047889
1.530004079311496 -0.160306948079187 -2.535156219940532
1.52882516280215 -0.172794169065327 -2.533202962354153
1.530003962005921 -0.185548035977112 -2.535156377143693
1.530004007112495 -0.19816880045062 -2.535156258971625
1.530003975061106 -0.210789371844037 -2.535156043262248
1.530004063519499 -0.223410008974698 -2.535156234556254
1.528825489946115 -0.235848805689505 -2.533203520567213
1.52882533499124 -0.248459834081423 -2.533203192462423
1.530004129564205 -0.26127188658338 -2.535156372671054
1.530004186871153 -0.273892660887622 -2.535156406592122
1.528825146129975 -0.286292490215398 -2.533202990115058
1.528825209032618 -0.29890355382566 -2.533203043828678
1.528825215636061 -0.31151429176621 -2.533203100696767
1.527646419681474 -0.323875256003596 -2.531249847389176
1.527646587369546 -0.336476613383438 -2.531250247657766
1.527646556171931 -0.349077770723738 -2.531249943579041
1.527646725390696 -0.361679121647533 -2.531250250627977
1.527646414856505 -0.374280216534665 -2.531249920348458
1.527646440765238 -0.386881392606711 -2.531249955128715
1.527646584498044 -0.399482639244475 -2.531250114414263
1.527646469063455 -0.412083746127294 -2.531249946167009
1.527646471402136 -0.424684949602938 -2.531249963364658
1.527646564798033 -0.437286258410268 -2.531250060614639
1.527646522829002 -0.449887425470589 -2.531249984905742
1.527646557144067 -0.462488478624138 -2.531250204206657
1.527646494263308 -0.475089741373331 -2.531249901151682
1.527646540654573 -0.487690881870932 -2.531249891665794
1.528825165740571 -0.500678259191684 -2.53320297592775
1.528825171716619 -0.513289113554038 -2.53320307439634
1.530004129780309 -0.526305584125453 -2.535156471605546
1.530003997395113 -0.538926008711726 -2.535156342302258
1.530003921758521 -0.551546730404993 -2.535156189867678
1.530003904998011 -0.564167370782869 -2.535156140825222
1.530003951779292 -0.57678812450316 -2.535156202918373
1.530004120511961 -0.589408774770739 -2.535156298226724
1.530003993110881 -0.602029235766842 -2.535156268650113
1.530004106056481 -0.614650041275937 -2.535156411924731
1.530004035355546 -0.627270591475394 -2.535156323872229
1.530003956434598 -0.639891369805156 -2.535156176730652
1.530003862405209 -0.652511983245589 -2.535156082959929
1.530004106815852 -0.66513276981194 -2.535156390910913
1.530003957338522 -0.677753183471452 -2.535156305662085
1.52882525426098 -0.689841978868206 -2.533203006407859
1.530004000866043 -0.702994604565827 -2.535156416667519
1.531182697259368 -0.716166527599125 -2.537109164308546
1.531182825124262 -0.728797059738653 -2.537109465899746
1.531182777436271 -0.741427167955045 -2.537109264715539
1.530004182602056 -0.753477263445443 -2.535156352344075
1.53118274867488 -0.766688052895468 -2.537109377184592
1.531182703299557 -0.779318175455629 -2.537109376481652
1.531182776192566 -0.79194872857213 -2.537109369602646
1.531182705546343 -0.804579088474696 -2.537109288144393
1.531182621679662 -0.817209507763124 -2.537109259622724
1.531182718943043 -0.829839711803729 -2.537109213348742
1.531182759923126 -0.842470031969555 -2.537109274269653
1.53118278065142 -0.85510061174881 -2.537109381985942
1.530004096116748 -0.86706293299229 -2.535156323602365
1.530004088691555 -0.879683700556541 -2.535156372424012
1.530003948035144 -0.892304068281661 -2.535156102249871
1.528825340999127 -0.904227543356839 -2.533203224877099
1.528825183055474 -0.916838574467569 -2.533202987629878
1.528825370472497 -0.929449532966608 -2.533203329917114
1.52882538280717 -0.942060602120378 -2.533203262432878
1.527646557089895 -0.953935382949027 -2.531250130883336
1.527646590475882 -0.966536466282037 -2.531250054484872
1.527646489999682 -0.97913768306654 -2.531249922405948
1.527646659567495 -0.991739003159282 -2.531250224076857
1.52764655023104 -1.004340127893812 -2.53124995409442
1.527646519112096 -1.016941416280474 -2.531249959475431
1.526467885730938 -1.028748277492753 -2.529297027168013
1.526467793472847 -1.041339575658725 -2.529296914616509
1.526467801063035 -1.053931244107517 -2.529296900502146
1.526467779841916 -1.066522596205246 -2.52929689980995
1.526467879058231 -1.079114004291313 -2.529296849466959
1.526467712590218 -1.091705498401332 -2.529296859549675
1.525289054060153 -1.103444225215711 -2.527343723114512
1.52528911096249 -1.116025829714744 -2.527343899624711
1.524110344505942 -1.12773558251277 -2.525390788165254
1.524110387638302 -1.140307592324973 -2.525390775163999
1.526467840601832 -1.154662896863847 -2.529296910361822
1.525289101244446 -1.166353022563165 -2.527343857620153
1.524110265400253 -1.178023769181152 -2.525390599189308
1.519395306872127 -1.186912364805806 -2.517578149413964
1.517037729558922 -1.197584429085893 -2.513671714582159
1.518216539260379 -1.211038557408102 -2.515624866178825
0.637604293174604 0.491902805251584 -1.04785158737991
0.616806365177183 0.470811182963473 -1.013671878067498
0.679794401432702 0.513328563363274 -1.117187509212854
0.739216933312292 0.552152071603622 -1.214843706361854
0.741593844895643 0.547860236314225 -1.218749949785064
0.773087797070602 0.564801853792343 -1.270507789801414
0.825379674688374 0.596252498577503 -1.35644530509208
0.844989135244305 0.603505133678542 -1.38867190166966
0.851525634548203 0.601207029536319 -1.399414073056519
0.855091093515085 0.596728502217697 -1.405273619725072
0.860439028241128 0.593421073337211 -1.414062624780989
0.861627524348336 0.587191459205457 -1.416015770207366
0.855090961178355 0.575741061445946 -1.405273427864202
0.849742873268493 0.565188057988014 -1.39648427697454
0.844989152183423 0.555113099260534 -1.388671929075869
0.839046965649946 0.544344846062721 -1.378906351543954
0.838452641219906 0.537099623071523 -1.377929688973879
0.838452622224661 0.530239880248651 -1.377929703142655
0.839046940512162 0.523751180275411 -1.378906255236018
0.839046896897866 0.516886567875297 -1.378906229184729
0.844394856436217 0.513272911486521 -1.387695222834694
0.847366102384655 0.508146397632963 -1.39257816439401
0.853308294272821 0.50472854624801 -1.40234378332832
0.858656360174027 0.500866951158979 -1.411132779334885
0.865192789767104 0.497601277812112 -1.421874867523989
0.871729332690432 0.494228702570823 -1.432617237264573
0.878265810951092 0.490749211509197 -1.443359399502739
0.884802358033635 0.487162787311465 -1.454101696018235
0.890744541668084 0.48314695727592 -1.463867180203579
0.897281079464165 0.479351406259198 -1.474609470764236
0.903817523191591 0.475448909555539 -1.485351651999991
0.910948202245464 0.471747175931348 -1.497070202616889
0.919267341722389 0.468534570252373 -1.510742146514332
0.928180817131135 0.465483772562152 -1.525390693340682
0.93828263479854 0.462873416495494 -1.541992255384649
0.960863274570954 0.466151770914028 -1.579101680052858
1.036924267248196 0.494568426941054 -1.704101758825274
1.123086731384703 0.526475912329126 -1.845703031371301
1.559248594247492 0.718181117422972 -2.56249996701284
1.550929245953171 0.701660686299832 -2.548827865809983
1.543798739571017 0.685804345604037 -2.537109503458822
1.548552406979098 0.675246852700212 -2.544921723877025
1.547364098492878 0.662069128958745 -2.542968562279881
1.544987052391662 0.64841202009427 -2.539062299207103
1.546175731565029 0.636260978048377 -2.541015733956158
1.546175553326847 0.623611224717138 -2.541015610331598
1.547364087849772 0.611431004999488 -2.542968626696862
1.54617553473976 0.598311461288041 -2.541015620947675
1.547364091240325 0.586111848741659 -2.5429686616406
1.547364153358544 0.573452400852585 -2.542968908259709
1.54855249464039 0.561223511030924 -2.544921919460833
1.549740966817367 0.548975280039471 -2.546875004525845
1.550929567028334 0.536707623657961 -2.548828275008816
1.553306477844117 0.524821954042153 -2.552734529860984
1.555683258213605 0.512897447764516 -2.556640649113035
1.556871610341943 0.500551956528913 -2.558593889814247
1.549741008807416 0.485580353685222 -2.546875132774289
1.539044876516641 0.469637437534573 -2.529296906842603
1.535479687825045 0.45598718995393 -2.523437650978622
1.533102826502386 0.442738469721775 -2.519531559333245
1.534291023895804 0.430529134315165 -2.521484293842633
1.536667870861493 0.418624013023873 -2.52539054372528
1.540233277089044 0.406994093093445 -2.531250033833061
1.541421890242987 0.394697250508472 -2.533203214668291
1.54023335097726 0.381791769658754 -2.531249840206755
1.54142180196061 0.369475402042099 -2.533203025772082
1.541421794273106 0.35686448430436 -2.533203178607835
1.540233425426379 0.343988099659605 -2.53125010283992
1.539044812593772 0.331131227630614 -2.529296894983759
1.539044758797075 0.318539765561336 -2.529296610270052
1.5378563958744 0.305712000511988 -2.527343652518226
1.537856535029078 0.293130374646626 -2.527343930291579
1.537856513647583 0.280548591308317 -2.527343971897693
1.537856467572595 0.267966783272996 -2.527343760357638
1.536667891739953 0.255187695383771 -2.525390614004209
1.536667932325784 0.242615617264002 -2.525390827878837
1.536667974956742 0.230043532696662 -2.525390769883487
1.535479660398664 0.217303350691989 -2.523437643898063
1.535479528285109 0.204741150379766 -2.523437506093842
1.534291206525111 0.192030048660806 -2.521484399295161
1.534291254029583 0.179477504955707 -2.521484524299339
1.533102753502078 0.166795576175616 -2.519531318423134
1.533102465543578 0.154252652259233 -2.519531023538718
1.533102393247873 0.141709890028134 -2.519530922255427
1.533102643144545 0.129167005731677 -2.519531302966627
1.533102595776199 0.116624084971961 -2.519531135400442
1.533102632349198 0.104081268448631 -2.519531347414386
1.533102603235363 0.091538360378456 -2.519531278530508
1.533102531782504 0.07899545533395 -2.519531143046748
1.533102510321086 0.066452613728117 -2.51953102999866
1.534291288941787 0.053951665786849 -2.521484567008983
1.534291178469616 0.041399033309466 -2.521484426805074
1.534291067850859 0.028846480021238 -2.521484289328839
1.534291089406992 0.01629385167971 -2.521484196110308
1.53429107261843 0.003741223075922 -2.521484156049496
1.534291143827659 -0.008811255595958 -2.52148455270418
1.534291054556292 -0.021363806903041 -2.521484274004138
1.533102652074035 -0.033890166263122 -2.519531276733915
1.533102596677168 -0.046433065058558 -2.519531172860297
1.531914092672466 -0.05893025853919 -2.517578065028019
1.531914170337245 -0.071463358664963 -2.517578010081536
1.531914330313185 -0.083996475878548 -2.517578206405972
1.530725672586868 -0.096454691792943 -2.51562496789586
1.531914303918256 -0.109062693491609 -2.517578151816906
1.531914247236315 -0.121595796330701 -2.517578176759002
1.531914232389681 -0.134129045126903 -2.517578097629837
1.531914157109171 -0.146662157749331 -2.517578160720504
1.531914235601789 -0.159195410649872 -2.517578190482027
1.53191423621962 -0.171728379980012 -2.517578220676029
1.531914191358993 -0.184261472249434 -2.517578065879221
1.531914234809804 -0.196794716901561 -2.517578008650645
1.531914250356067 -0.209327843714135 -2.517578096845114
1.530725750901382 -0.221688835934881 -2.515624908517552
1.530725653922161 -0.23421221299588 -2.515624955599051
1.530725574598762 -0.246735741923196 -2.515624933770312
1.530725756445889 -0.259258973115356 -2.515624953563488
1.530725594005133 -0.271782516025887 -2.515624837997166
1.530725748420949 -0.284305891844117 -2.515624918183264
1.530725732177302 -0.296829414884527 -2.515624858855531
1.530725654504948 -0.309352667094199 -2.515625079117527
1.530725622101585 -0.32187604353223 -2.515624934963228
1.529537343452176 -0.334139952519743 -2.513672043196806
1.529537196870265 -0.346653601241336 -2.513671778874027
1.529537351961352 -0.359167450341307 -2.513671999578122
1.529537321991256 -0.371681112926588 -2.513671893053953
1.529537308670115 -0.384194750484212 -2.513671803092166
1.529537296056915 -0.396708419904837 -2.513671994311224
1.529537536139316 -0.409222106832551 -2.513672071439601
1.529537354007971 -0.421735739847406 -2.513671734740228
1.52953736576714 -0.434249523024825 -2.513671895520361
1.529537354462747 -0.446763222281206 -2.513671842777825
1.529537400767111 -0.459276720815719 -2.513672127071601
1.52953746081414 -0.471790525953978 -2.513672029628182
1.529537133443171 -0.484304116549037 -2.513671537960249
1.53072588591931 -0.497204082874305 -2.515625230134901
1.530725853688978 -0.509727451608512 -2.515625086044167
1.531914256710067 -0.522656280070869 -2.517578180982667
1.531914298748234 -0.535189279666834 -2.517578390268795
1.53191414255059 -0.547722403104139 -2.517577943186637
1.531914210164643 -0.560255579557094 -2.517578081455184
1.531914085410762 -0.572788822188848 -2.51757805781466
1.531914065841136 -0.585321912066981 -2.517577836868981
1.531914390956373 -0.597854937481419 -2.517578297607017
1.531914101416646 -0.610388113336924 -2.517577966620522
1.53191427139447 -0.622921296624902 -2.517578096210769
1.533102652953175 -0.63594754478757 -2.519531431328801
1.533102800919934 -0.648490399224386 -2.519531473308533
1.531914231665581 -0.660520883788664 -2.517578018083981
1.531914127880839 -0.673053801515337 -2.517577903226027
1.531914441690219 -0.685586997145322 -2.517578384076216
1.531914199214128 -0.698120184897384 -2.517577963446058
1.533102709714242 -0.711204668683791 -2.51953131719894
1.533102679626097 -0.723747662684033 -2.519531373734623
1.533102631984349 -0.736290297560629 -2.519531439749869
1.533102610107377 -0.748833310644201 -2.5195312884874
1.53310259751396 -0.7613760922771 -2.519531203105799
1.533102636151256 -0.773918775244766 -2.51953113575675
1.533102584770631 -0.786461760457314 -2.519531217968847
1.533102726882134 -0.799004654299097 -2.519531382928108
1.533102617562463 -0.811547645251238 -2.519531380647706
1.533102539770908 -0.824090183730704 -2.519531142105222
1.534291314959262 -0.837281687332791 -2.521484529223414
1.533102445720999 -0.849175937245377 -2.519531008444289
1.533102538131324 -0.861718837157746 -2.51953115473961
1.533102753173807 -0.874261877370941 -2.51953135633471
1.533102731922611 -0.886804649922723 -2.519531357258415
1.531914250772218 -0.898650232801181 -2.517578204241332
1.531914195594865 -0.911183460082441 -2.517577967438712
1.53191415353632 -0.923716511225678 -2.517577900417905
1.530725642582226 -0.935523503661983 -2.515624927347062
1.530725698454901 -0.948046832140882 -2.515624877536951
1.53072568937062 -0.960570135183708 -2.515624981258043
1.530725724718884 -0.973093609931297 -2.515625016594925
1.53072564263308 -0.985617021145636 -2.515624881995507
1.53072580335369 -0.998140666421151 -2.515625268701385
1.529537278170302 -1.009879182450526 -2.513671744661522
